ply
format ascii 1.0
element vertex 1151
property float x
property float y
property float z
property uchar red
property uchar green
property uchar blue
end_header
2.090090 0.072072 -4.612613 142 147 143 
2.099099 0.072072 -4.612613 142 147 143 
2.108108 0.072072 -4.612613 142 147 143 
2.117117 0.072072 -4.612613 142 147 143 
2.126126 0.072072 -4.612613 142 147 143 
2.135135 0.072072 -4.612613 142 147 143 
2.144144 0.072072 -4.612613 142 147 143 
2.153153 0.072072 -4.612613 142 147 143 
2.162162 0.072072 -4.612613 142 147 143 
2.171171 0.072072 -4.612613 142 147 143 
2.180180 0.072072 -4.612613 142 147 143 
2.189189 0.072072 -4.612613 142 147 143 
2.198198 0.072072 -4.612613 141 146 142 
2.207207 0.072072 -4.612613 141 146 142 
2.216216 0.072072 -4.612613 141 146 142 
2.225225 0.072072 -4.612613 141 146 142 
2.234234 0.072072 -4.612613 141 146 142 
2.357798 0.073394 -4.697248 140 145 141 
2.366972 0.073394 -4.697248 140 145 141 
2.376147 0.073394 -4.697248 140 145 141 
2.385321 0.073394 -4.697248 139 144 140 
2.397244 0.073479 -4.702641 139 144 140 
2.409195 0.073563 -4.708046 139 144 140 
2.418391 0.073563 -4.708046 139 144 140 
2.427586 0.073563 -4.708046 139 144 140 
2.435382 0.073521 -4.705342 139 144 140 
2.444572 0.073521 -4.705342 139 144 140 
2.452354 0.073479 -4.702641 139 144 140 
2.460126 0.073437 -4.699943 139 144 140 
2.469306 0.073437 -4.699943 138 143 139 
2.478485 0.073437 -4.699943 138 143 139 
2.489093 0.073479 -4.702641 138 143 139 
2.531532 0.072072 -4.612613 137 142 138 
2.540540 0.072072 -4.612613 137 142 138 
2.549550 0.072072 -4.612613 137 142 138 
2.558558 0.072072 -4.612613 137 142 138 
2.567568 0.072072 -4.612613 136 141 137 
2.576576 0.072072 -4.612613 136 141 137 
2.585586 0.072072 -4.612613 136 141 137 
2.594594 0.072072 -4.612613 137 142 138 
2.603604 0.072072 -4.612613 137 142 138 
2.612613 0.072072 -4.612613 137 142 138 
2.621622 0.072072 -4.612613 137 142 138 
2.630631 0.072072 -4.612613 136 141 137 
2.639640 0.072072 -4.612613 135 140 136 
2.648649 0.072072 -4.612613 135 140 136 
2.657658 0.072072 -4.612613 135 140 136 
2.666667 0.072072 -4.612613 136 140 137 
2.675676 0.072072 -4.612613 136 139 137 
2.729730 0.072072 -4.612613 135 137 138 
2.738739 0.072072 -4.612613 136 137 136 
2.747748 0.072072 -4.612613 137 137 135 
2.756757 0.072072 -4.612613 137 137 135 
2.765766 0.072072 -4.612613 136 136 135 
2.774775 0.072072 -4.612613 136 136 135 
2.783784 0.072072 -4.612613 136 136 135 
-1.327074 0.087637 -6.410016 140 145 141 
-1.312500 0.087500 -6.400000 141 146 142 
-1.300000 0.087500 -6.400000 141 146 142 
-1.287500 0.087500 -6.400000 141 146 142 
-1.275000 0.087500 -6.400000 141 146 142 
-1.262500 0.087500 -6.400000 141 146 142 
-1.250000 0.087500 -6.400000 141 146 142 
-1.237500 0.087500 -6.400000 141 146 142 
-1.225000 0.087500 -6.400000 141 146 142 
-1.212500 0.087500 -6.400000 141 146 142 
-1.200000 0.087500 -6.400000 142 147 143 
-1.187500 0.087500 -6.400000 142 147 143 
-2.533808 0.199288 -14.576512 142 147 143 
-2.500888 0.198934 -14.550622 143 148 144 
-2.468085 0.198582 -14.524822 143 148 144 
-2.439716 0.198582 -14.524822 143 148 144 
-2.411348 0.198582 -14.524822 143 148 144 
-2.382979 0.198582 -14.524822 143 148 144 
-2.350442 0.198230 -14.499115 143 148 144 
-2.326241 0.198582 -14.524822 143 148 144 
-2.720358 0.250559 -18.326622 144 149 145 
-2.678571 0.250000 -18.285715 144 149 145 
-2.648770 0.250559 -18.326622 144 149 145 
-1.491345 0.149134 -10.908122 144 149 145 
-1.466136 0.148738 -10.879150 144 149 145 
-1.442971 0.148541 -10.864721 144 149 145 
-1.421751 0.148541 -10.864721 144 149 145 
-1.400530 0.148541 -10.864721 144 149 145 
-1.381142 0.148738 -10.879150 144 149 145 
-1.359894 0.148738 -10.879150 144 149 145 
-1.338645 0.148738 -10.879150 144 149 145 
-1.317397 0.148738 -10.879150 144 149 145 
-0.874667 0.149333 -10.922667 147 152 148 
-0.667362 0.116788 -8.542232 147 152 148 
-0.650000 0.116667 -8.533334 147 152 148 
-0.633333 0.116667 -8.533334 147 152 148 
-0.616667 0.116667 -8.533334 147 152 148 
-0.600000 0.116667 -8.533334 147 152 148 
-0.583333 0.116667 -8.533334 147 152 148 
-0.566667 0.116667 -8.533334 147 152 148 
-0.515593 0.116424 -8.515593 148 150 149 
-0.498960 0.116424 -8.515593 148 150 149 
-0.482328 0.116424 -8.515593 148 150 149 
-0.465696 0.116424 -8.515593 148 150 149 
-0.449532 0.116545 -8.524454 149 151 150 
0.695652 0.180354 -13.191627 151 156 152 
0.721417 0.180354 -13.191627 151 156 152 
0.745981 0.180064 -13.170418 152 157 153 
0.771704 0.180064 -13.170418 152 157 153 
0.797428 0.180064 -13.170418 153 158 154 
0.821830 0.179775 -13.149278 153 158 154 
0.846154 0.179487 -13.128205 153 158 154 
0.870400 0.179200 -13.107200 153 158 154 
0.893142 0.178628 -13.065391 153 158 154 
0.915739 0.178060 -13.023848 154 159 155 
0.939683 0.177778 -13.003175 154 159 155 
0.957480 0.176378 -12.900787 154 159 155 
0.979592 0.175824 -12.860283 154 159 155 
1.001565 0.175274 -12.820031 155 160 156 
1.029827 0.175824 -12.860283 156 161 157 
1.129412 0.073203 -5.354249 155 157 156 
1.138381 0.073107 -5.347259 155 157 156 
1.146580 0.072964 -5.336808 155 157 156 
1.156250 0.072917 -5.333333 155 157 156 
1.166667 0.072917 -5.333333 154 158 155 
1.177083 0.072917 -5.333333 154 159 155 
1.187500 0.072917 -5.333333 154 159 155 
1.197917 0.072917 -5.333333 154 159 155 
1.208333 0.072917 -5.333333 153 158 154 
1.218750 0.072917 -5.333333 153 158 154 
1.229167 0.072917 -5.333333 153 158 154 
1.239583 0.072917 -5.333333 153 158 154 
1.250000 0.072917 -5.333333 153 158 154 
1.261238 0.072964 -5.336808 153 158 154 
1.387387 0.063063 -4.612613 152 155 152 
1.396396 0.063063 -4.612613 152 154 153 
1.405405 0.063063 -4.612613 152 154 154 
1.414414 0.063063 -4.612613 153 154 155 
1.423423 0.063063 -4.612613 152 155 157 
1.432432 0.063063 -4.612613 152 156 158 
1.441441 0.063063 -4.612613 153 155 155 
1.450450 0.063063 -4.612613 153 155 154 
1.459459 0.063063 -4.612613 153 155 154 
1.468468 0.063063 -4.612613 153 155 154 
1.477477 0.063063 -4.612613 154 156 155 
1.486486 0.063063 -4.612613 153 155 154 
1.629630 0.064815 -4.740741 151 153 152 
1.638889 0.064815 -4.740741 152 154 153 
1.648148 0.064815 -4.740741 152 154 153 
1.657407 0.064815 -4.740741 151 153 152 
1.666667 0.064815 -4.740741 151 153 152 
1.675926 0.064815 -4.740741 151 153 152 
1.685185 0.064815 -4.740741 151 153 152 
1.694444 0.064815 -4.740741 151 153 152 
1.703704 0.064815 -4.740741 150 153 152 
1.712963 0.064815 -4.740741 151 153 152 
1.722222 0.064815 -4.740741 151 153 152 
1.731481 0.064815 -4.740741 151 153 152 
1.740741 0.064815 -4.740741 151 153 152 
1.748988 0.064777 -4.737999 151 153 152 
1.757225 0.064740 -4.735260 151 153 152 
1.766474 0.064740 -4.735260 150 153 152 
1.775723 0.064740 -4.735260 149 154 151 
1.826235 0.063600 -4.651902 148 150 149 
1.835321 0.063600 -4.651902 148 150 149 
1.843360 0.063564 -4.649262 148 150 149 
1.852440 0.063564 -4.649262 148 150 149 
1.860465 0.063528 -4.646625 148 150 149 
1.869541 0.063528 -4.646625 148 150 149 
1.879682 0.063564 -4.649262 148 150 149 
1.927928 0.063063 -4.612613 147 149 148 
1.936937 0.063063 -4.612613 147 149 148 
2.099099 0.063063 -4.612613 142 147 143 
2.108108 0.063063 -4.612613 142 147 143 
2.117117 0.063063 -4.612613 142 147 143 
2.126126 0.063063 -4.612613 142 147 143 
2.135135 0.063063 -4.612613 142 147 143 
2.144144 0.063063 -4.612613 142 147 143 
2.153153 0.063063 -4.612613 142 147 143 
2.162162 0.063063 -4.612613 142 147 143 
2.171171 0.063063 -4.612613 142 147 143 
2.180180 0.063063 -4.612613 142 147 143 
2.189189 0.063063 -4.612613 142 147 143 
2.198198 0.063063 -4.612613 141 146 142 
2.207207 0.063063 -4.612613 141 146 142 
2.216216 0.063063 -4.612613 141 146 142 
2.225225 0.063063 -4.612613 141 146 142 
2.234234 0.063063 -4.612613 141 146 142 
2.356447 0.064183 -4.694556 140 145 141 
2.365616 0.064183 -4.694556 140 145 141 
2.376147 0.064220 -4.697248 139 144 140 
2.386690 0.064257 -4.699943 139 144 140 
2.397244 0.064294 -4.702641 139 144 140 
2.409195 0.064368 -4.708046 139 144 140 
2.419781 0.064405 -4.710753 139 144 140 
2.428982 0.064405 -4.710753 139 144 140 
2.436782 0.064368 -4.708046 139 144 140 
2.444572 0.064331 -4.705342 139 144 140 
2.453762 0.064331 -4.705342 139 144 140 
2.461539 0.064294 -4.702641 139 144 140 
2.470723 0.064294 -4.702641 138 143 139 
2.479908 0.064294 -4.702641 138 143 139 
2.491954 0.064368 -4.708046 137 142 138 
2.519110 0.063890 -4.673132 137 142 138 
2.528237 0.063890 -4.673132 137 142 138 
2.531532 0.063063 -4.612613 137 142 138 
2.540540 0.063063 -4.612613 137 142 138 
2.549550 0.063063 -4.612613 137 142 138 
2.558558 0.063063 -4.612613 137 142 138 
2.567568 0.063063 -4.612613 136 141 137 
2.576576 0.063063 -4.612613 136 141 137 
2.585586 0.063063 -4.612613 136 141 137 
2.594594 0.063063 -4.612613 137 142 138 
2.603604 0.063063 -4.612613 137 142 138 
2.612613 0.063063 -4.612613 137 142 138 
2.621622 0.063063 -4.612613 137 142 138 
2.630631 0.063063 -4.612613 136 141 137 
2.639640 0.063063 -4.612613 135 140 136 
2.648649 0.063063 -4.612613 135 140 136 
2.657658 0.063063 -4.612613 135 140 136 
2.666667 0.063063 -4.612613 137 140 138 
2.675676 0.063063 -4.612613 137 139 138 
2.738739 0.063063 -4.612613 135 136 134 
2.747748 0.063063 -4.612613 136 136 134 
2.756757 0.063063 -4.612613 137 137 135 
2.765766 0.063063 -4.612613 136 136 134 
2.774775 0.063063 -4.612613 136 136 134 
2.783784 0.063063 -4.612613 135 135 133 
-1.327074 0.075117 -6.410016 140 145 141 
-1.313526 0.075059 -6.405004 141 146 142 
-1.300000 0.075000 -6.400000 141 146 142 
-1.287500 0.075000 -6.400000 141 146 142 
-1.275000 0.075000 -6.400000 141 146 142 
-1.262500 0.075000 -6.400000 141 146 142 
-1.250000 0.075000 -6.400000 141 146 142 
-1.237500 0.075000 -6.400000 141 146 142 
-1.225000 0.075000 -6.400000 141 146 142 
-1.212500 0.075000 -6.400000 141 146 142 
-1.200000 0.075000 -6.400000 142 147 143 
-1.187500 0.075000 -6.400000 142 147 143 
-1.175000 0.075000 -6.400000 142 147 143 
-2.533808 0.170819 -14.576512 142 147 143 
-2.496454 0.170213 -14.524822 143 148 144 
-2.459364 0.169611 -14.473498 143 148 144 
-2.431095 0.169611 -14.473498 143 148 144 
-2.402827 0.169611 -14.473498 143 148 144 
-2.374558 0.169611 -14.473498 143 148 144 
-2.342152 0.169312 -14.447971 143 148 144 
-2.313933 0.169312 -14.447971 143 148 144 
-2.791946 0.214765 -18.326622 143 148 144 
-2.750000 0.214286 -18.285715 143 148 144 
-2.714286 0.214286 -18.285715 144 149 145 
-2.678571 0.214286 -18.285715 144 149 145 
-2.642857 0.214286 -18.285715 144 149 145 
-2.607143 0.214286 -18.285715 144 149 145 
-2.571429 0.214286 -18.285715 144 149 145 
-2.500000 0.214286 -18.285715 144 149 145 
-1.468085 0.127660 -10.893617 144 149 145 
-1.444887 0.127490 -10.879150 144 149 145 
-1.421751 0.127321 -10.864721 144 149 145 
-1.400530 0.127321 -10.864721 144 149 145 
-1.382979 0.127660 -10.893617 144 149 145 
-1.361702 0.127660 -10.893617 144 149 145 
-1.338645 0.127490 -10.879150 144 149 145 
-1.317397 0.127490 -10.879150 144 149 145 
-0.667362 0.100104 -8.542232 147 152 148 
-0.650000 0.100000 -8.533334 147 152 148 
-0.633333 0.100000 -8.533334 147 152 148 
-0.616667 0.100000 -8.533334 147 152 148 
-0.599376 0.099896 -8.524454 147 152 148 
-0.582726 0.099896 -8.524454 147 152 148 
-0.565489 0.099792 -8.515593 147 152 148 
-0.548287 0.099688 -8.506750 147 152 148 
-0.531672 0.099688 -8.506750 148 151 149 
-0.515593 0.099792 -8.515593 148 150 149 
-0.498442 0.099688 -8.506750 148 150 149 
-0.481828 0.099688 -8.506750 148 150 149 
-0.465696 0.099792 -8.515593 148 150 149 
-0.449064 0.099792 -8.515593 148 150 149 
-0.432882 0.099896 -8.524454 148 150 149 
0.660066 0.158416 -13.518152 151 156 152 
0.697900 0.155089 -13.234249 151 156 152 
0.721417 0.154589 -13.191627 151 156 152 
0.747182 0.154589 -13.191627 152 157 153 
0.772947 0.154589 -13.191627 152 157 153 
0.798712 0.154589 -13.191627 153 158 154 
0.823151 0.154341 -13.170418 153 158 154 
0.847512 0.154093 -13.149278 153 158 154 
0.871795 0.153846 -13.128205 153 158 154 
0.897436 0.153846 -13.128205 153 158 154 
0.920128 0.153355 -13.086262 154 159 155 
0.944179 0.153110 -13.065391 154 159 155 
0.965079 0.152381 -13.003175 154 159 155 
0.984227 0.151420 -12.921136 154 159 155 
1.007874 0.151181 -12.900787 155 160 156 
1.138381 0.062663 -5.347259 155 157 156 
1.146580 0.062541 -5.336808 155 157 156 
1.157003 0.062541 -5.336808 155 157 156 
1.166667 0.062500 -5.333333 153 158 154 
1.177083 0.062500 -5.333333 153 158 154 
1.187500 0.062500 -5.333333 153 158 154 
1.197917 0.062500 -5.333333 153 158 154 
1.208333 0.062500 -5.333333 153 158 154 
1.218750 0.062500 -5.333333 153 158 154 
1.229167 0.062500 -5.333333 153 158 154 
1.239583 0.062500 -5.333333 153 158 154 
1.250000 0.062500 -5.333333 153 158 154 
1.261238 0.062541 -5.336808 153 158 154 
1.396396 0.054054 -4.612613 152 154 153 
1.405405 0.054054 -4.612613 152 154 153 
1.414414 0.054054 -4.612613 152 154 155 
1.423423 0.054054 -4.612613 152 155 156 
1.432432 0.054054 -4.612613 152 155 156 
1.441441 0.054054 -4.612613 153 155 155 
1.450450 0.054054 -4.612613 153 155 154 
1.459459 0.054054 -4.612613 153 155 154 
1.468468 0.054054 -4.612613 153 155 154 
1.477477 0.054054 -4.612613 154 156 155 
1.486486 0.054054 -4.612613 153 155 154 
1.495495 0.054054 -4.612613 153 155 154 
1.638889 0.055556 -4.740741 152 154 153 
1.648148 0.055556 -4.740741 153 155 154 
1.657407 0.055556 -4.740741 152 154 153 
1.666667 0.055556 -4.740741 151 153 152 
1.675926 0.055556 -4.740741 151 153 152 
1.685185 0.055556 -4.740741 151 153 152 
1.694444 0.055556 -4.740741 151 153 152 
1.703704 0.055556 -4.740741 150 153 152 
1.712963 0.055556 -4.740741 150 153 152 
1.722222 0.055556 -4.740741 151 153 152 
1.731481 0.055556 -4.740741 151 153 152 
1.740741 0.055556 -4.740741 151 153 152 
1.750000 0.055556 -4.740741 151 153 152 
1.759259 0.055556 -4.740741 151 153 152 
1.768519 0.055556 -4.740741 149 153 152 
1.778807 0.055588 -4.743486 149 153 150 
1.835321 0.054514 -4.651902 148 150 149 
1.844407 0.054514 -4.651902 148 150 149 
1.853492 0.054514 -4.651902 148 150 149 
1.861521 0.054484 -4.649262 148 150 149 
1.870602 0.054484 -4.649262 148 150 149 
2.099099 0.054054 -4.612613 142 147 143 
2.108108 0.054054 -4.612613 142 147 143 
2.117117 0.054054 -4.612613 142 147 143 
2.126126 0.054054 -4.612613 142 147 143 
2.135135 0.054054 -4.612613 142 147 143 
2.144144 0.054054 -4.612613 142 147 143 
2.153153 0.054054 -4.612613 142 147 143 
2.162162 0.054054 -4.612613 142 147 143 
2.171171 0.054054 -4.612613 142 147 143 
2.180180 0.054054 -4.612613 142 147 143 
2.189189 0.054054 -4.612613 142 147 143 
2.198198 0.054054 -4.612613 141 146 142 
2.207207 0.054054 -4.612613 141 146 142 
2.216216 0.054054 -4.612613 141 146 142 
2.225225 0.054054 -4.612613 141 146 142 
2.234234 0.054054 -4.612613 141 146 142 
2.356447 0.055014 -4.694556 140 145 141 
2.365616 0.055014 -4.694556 140 145 141 
2.376147 0.055046 -4.697248 139 144 140 
2.386690 0.055077 -4.699943 139 144 140 
2.398622 0.055141 -4.705342 139 144 140 
2.410581 0.055204 -4.710753 139 144 140 
2.421174 0.055236 -4.713464 139 144 140 
2.430380 0.055236 -4.713464 138 143 139 
2.438183 0.055204 -4.710753 138 143 139 
2.445977 0.055172 -4.708046 138 143 139 
2.453762 0.055141 -4.705342 138 143 139 
2.462952 0.055141 -4.705342 139 144 140 
2.476410 0.055236 -4.713464 138 143 139 
2.485616 0.055236 -4.713464 138 143 139 
2.500577 0.055363 -4.724337 137 142 138 
2.497738 0.054299 -4.633484 137 142 138 
2.506787 0.054299 -4.633484 137 142 138 
2.531532 0.054054 -4.612613 137 142 138 
2.540540 0.054054 -4.612613 137 142 138 
2.549550 0.054054 -4.612613 137 142 138 
2.558558 0.054054 -4.612613 137 142 138 
2.567568 0.054054 -4.612613 137 142 138 
2.576576 0.054054 -4.612613 137 142 138 
2.585586 0.054054 -4.612613 137 142 138 
2.594594 0.054054 -4.612613 137 142 138 
2.603604 0.054054 -4.612613 137 142 138 
2.612613 0.054054 -4.612613 137 142 138 
2.621622 0.054054 -4.612613 137 142 138 
2.630631 0.054054 -4.612613 136 141 137 
2.639640 0.054054 -4.612613 135 140 136 
2.648649 0.054054 -4.612613 135 140 136 
2.657658 0.054054 -4.612613 135 140 136 
2.666667 0.054054 -4.612613 137 140 138 
2.675676 0.054054 -4.612613 137 139 138 
2.765766 0.054054 -4.612613 135 136 134 
2.774775 0.054054 -4.612613 135 135 133 
-6.500000 0.156250 -16.000000 148 149 139 
-6.468750 0.156250 -16.000000 134 137 126 
-1.327074 0.062598 -6.410016 140 145 141 
-1.313526 0.062549 -6.405004 141 146 142 
-1.300000 0.062500 -6.400000 141 146 142 
-1.287500 0.062500 -6.400000 141 146 142 
-1.275000 0.062500 -6.400000 141 146 142 
-1.262500 0.062500 -6.400000 141 146 142 
-1.250000 0.062500 -6.400000 141 146 142 
-1.237500 0.062500 -6.400000 141 146 142 
-1.225000 0.062500 -6.400000 141 146 142 
-1.212500 0.062500 -6.400000 141 146 142 
-1.200000 0.062500 -6.400000 142 147 143 
-1.187500 0.062500 -6.400000 142 147 143 
-2.492035 0.141593 -14.499115 143 148 144 
-2.455026 0.141093 -14.447971 143 148 144 
-2.418278 0.140598 -14.397188 143 148 144 
-2.385965 0.140351 -14.371930 143 148 144 
-2.357895 0.140351 -14.371930 143 148 144 
-2.329824 0.140351 -14.371930 143 148 144 
-2.301754 0.140351 -14.371930 143 148 144 
-2.821429 0.178571 -18.285715 143 148 144 
-2.785714 0.178571 -18.285715 143 148 144 
-2.750000 0.178571 -18.285715 143 148 144 
-2.714286 0.178571 -18.285715 144 149 145 
-2.678571 0.178571 -18.285715 144 149 145 
-2.642857 0.178571 -18.285715 144 149 145 
-2.607143 0.178571 -18.285715 144 149 145 
-2.571429 0.178571 -18.285715 144 149 145 
-2.535714 0.178571 -18.285715 144 149 145 
-2.500000 0.178571 -18.285715 144 149 145 
-1.468085 0.106383 -10.893617 144 149 145 
-1.444887 0.106242 -10.879150 144 149 145 
-1.421751 0.106101 -10.864721 144 149 145 
-1.400530 0.106101 -10.864721 144 149 145 
-1.381142 0.106242 -10.879150 144 149 145 
-1.359894 0.106242 -10.879150 144 149 145 
-1.338645 0.106242 -10.879150 144 149 145 
-1.315650 0.106101 -10.864721 144 149 145 
-0.633333 0.083333 -8.533334 147 152 148 
-0.616025 0.083247 -8.524454 147 152 148 
-0.599376 0.083247 -8.524454 147 152 148 
-0.582121 0.083160 -8.515593 147 152 148 
-0.564901 0.083074 -8.506750 147 152 148 
-0.548287 0.083074 -8.506750 147 152 148 
-0.531672 0.083074 -8.506750 148 151 149 
-0.515593 0.083160 -8.515593 148 150 149 
-0.498960 0.083160 -8.515593 148 150 149 
-0.481828 0.083074 -8.506750 148 150 149 
-0.465213 0.083074 -8.506750 147 149 148 
-0.449064 0.083160 -8.515593 147 149 148 
-0.432882 0.083247 -8.524454 147 149 148 
0.662252 0.132450 -13.562914 151 156 152 
0.723748 0.129241 -13.234249 151 156 152 
0.747182 0.128824 -13.191627 152 157 153 
0.772947 0.128824 -13.191627 152 157 153 
0.798712 0.128824 -13.191627 153 158 154 
0.824477 0.128824 -13.191627 153 158 154 
0.848875 0.128617 -13.170418 153 158 154 
0.873194 0.128411 -13.149278 153 158 154 
0.897436 0.128205 -13.128205 153 158 154 
0.923077 0.128205 -13.128205 154 159 155 
0.947200 0.128000 -13.107200 154 159 155 
0.969697 0.127592 -13.065391 154 159 155 
0.992051 0.127186 -13.023848 154 159 155 
1.020734 0.127592 -13.065391 154 159 155 
1.139125 0.052253 -5.350751 155 157 156 
1.146580 0.052117 -5.336808 155 157 156 
1.157003 0.052117 -5.336808 155 157 156 
1.167427 0.052117 -5.336808 153 157 154 
1.177083 0.052083 -5.333333 152 157 153 
1.187500 0.052083 -5.333333 152 157 153 
1.197917 0.052083 -5.333333 152 157 153 
1.208333 0.052083 -5.333333 153 158 154 
1.218750 0.052083 -5.333333 153 158 154 
1.229167 0.052083 -5.333333 153 158 154 
1.239583 0.052083 -5.333333 153 158 154 
1.250000 0.052083 -5.333333 153 158 154 
1.261238 0.052117 -5.336808 153 158 154 
1.396396 0.045045 -4.612613 152 154 153 
1.405405 0.045045 -4.612613 152 154 153 
1.414414 0.045045 -4.612613 152 153 154 
1.423423 0.045045 -4.612613 152 154 155 
1.432432 0.045045 -4.612613 151 155 156 
1.441441 0.045045 -4.612613 152 155 155 
1.450450 0.045045 -4.612613 153 155 154 
1.459459 0.045045 -4.612613 153 155 154 
1.468468 0.045045 -4.612613 153 155 154 
1.477477 0.045045 -4.612613 154 156 155 
1.486486 0.045045 -4.612613 153 155 154 
1.495495 0.045045 -4.612613 153 155 154 
1.648148 0.046296 -4.740741 153 155 154 
1.656449 0.046270 -4.737999 153 155 154 
1.665703 0.046270 -4.737999 151 153 152 
1.675926 0.046296 -4.740741 151 153 152 
1.685185 0.046296 -4.740741 151 153 152 
1.694444 0.046296 -4.740741 151 153 152 
1.703704 0.046296 -4.740741 150 153 152 
1.712963 0.046296 -4.740741 149 153 152 
1.722222 0.046296 -4.740741 151 153 152 
1.731481 0.046296 -4.740741 151 153 152 
1.740741 0.046296 -4.740741 151 153 152 
1.750000 0.046296 -4.740741 151 153 151 
1.759259 0.046296 -4.740741 150 153 151 
1.768519 0.046296 -4.740741 149 154 150 
1.777778 0.046296 -4.740741 148 153 150 
1.788072 0.046323 -4.743486 148 153 149 
1.797336 0.046323 -4.743486 147 152 148 
2.006936 0.046243 -4.735260 144 149 145 
2.016185 0.046243 -4.735260 144 149 145 
2.099099 0.045045 -4.612613 142 147 143 
2.108108 0.045045 -4.612613 142 147 143 
2.117117 0.045045 -4.612613 142 147 143 
2.126126 0.045045 -4.612613 142 147 143 
2.135135 0.045045 -4.612613 142 147 143 
2.144144 0.045045 -4.612613 142 147 143 
2.153153 0.045045 -4.612613 142 147 143 
2.162162 0.045045 -4.612613 142 147 143 
2.171171 0.045045 -4.612613 142 147 143 
2.180180 0.045045 -4.612613 142 147 143 
2.189189 0.045045 -4.612613 142 147 143 
2.198198 0.045045 -4.612613 141 146 142 
2.207207 0.045045 -4.612613 141 146 142 
2.216216 0.045045 -4.612613 141 146 142 
2.225225 0.045045 -4.612613 141 146 142 
2.234234 0.045045 -4.612613 141 146 142 
2.357798 0.045872 -4.697248 140 145 141 
2.366972 0.045872 -4.697248 140 145 141 
2.377510 0.045898 -4.699943 139 144 140 
2.386690 0.045898 -4.699943 139 144 140 
2.401380 0.046003 -4.710753 139 144 140 
2.414747 0.046083 -4.718894 139 144 140 
2.426759 0.046136 -4.724337 139 144 140 
2.434582 0.046110 -4.721614 138 143 139 
2.442396 0.046083 -4.718894 137 142 138 
2.448792 0.046030 -4.713464 137 142 138 
2.460829 0.046083 -4.718894 137 142 138 
2.471470 0.046110 -4.721614 138 143 139 
2.484988 0.046189 -4.729792 138 143 139 
2.494226 0.046189 -4.729792 138 143 139 
2.504910 0.046216 -4.732524 137 142 138 
2.495496 0.045045 -4.612613 137 142 138 
2.504504 0.045045 -4.612613 137 142 138 
2.531532 0.045045 -4.612613 137 142 138 
2.540540 0.045045 -4.612613 137 142 138 
2.549550 0.045045 -4.612613 137 142 138 
2.558558 0.045045 -4.612613 138 143 139 
2.567568 0.045045 -4.612613 138 143 139 
2.576576 0.045045 -4.612613 138 143 139 
2.585586 0.045045 -4.612613 138 143 139 
2.594594 0.045045 -4.612613 137 142 138 
2.603604 0.045045 -4.612613 137 142 138 
2.612613 0.045045 -4.612613 137 142 138 
2.621622 0.045045 -4.612613 137 142 138 
2.630631 0.045045 -4.612613 136 141 137 
2.639640 0.045045 -4.612613 135 140 136 
2.648649 0.045045 -4.612613 135 140 136 
2.657658 0.045045 -4.612613 135 140 136 
2.666667 0.045045 -4.612613 137 140 138 
2.675676 0.045045 -4.612613 137 139 138 
-6.500000 0.125000 -16.000000 153 154 145 
-6.468750 0.125000 -16.000000 139 142 132 
-6.437500 0.125000 -16.000000 108 110 101 
-1.313526 0.050039 -6.405004 140 145 141 
-1.300000 0.050000 -6.400000 140 145 141 
-1.287500 0.050000 -6.400000 140 145 141 
-1.275000 0.050000 -6.400000 140 145 141 
-1.262500 0.050000 -6.400000 140 145 141 
-1.250000 0.050000 -6.400000 141 146 142 
-1.237500 0.050000 -6.400000 141 146 142 
-1.225000 0.050000 -6.400000 141 146 142 
-1.212500 0.050000 -6.400000 141 146 142 
-1.200000 0.050000 -6.400000 141 146 142 
-2.455026 0.112875 -14.447971 142 147 143 
-2.414035 0.112281 -14.371930 142 147 143 
-2.385965 0.112281 -14.371930 142 147 143 
-2.357895 0.112281 -14.371930 143 148 144 
-2.325744 0.112084 -14.346760 143 148 144 
-2.297723 0.112084 -14.346760 143 148 144 
-2.899329 0.143177 -18.326622 143 148 144 
-2.863535 0.143177 -18.326622 143 148 144 
-2.821429 0.142857 -18.285715 143 148 144 
-2.785714 0.142857 -18.285715 143 148 144 
-2.750000 0.142857 -18.285715 143 148 144 
-2.714286 0.142857 -18.285715 143 148 144 
-2.678571 0.142857 -18.285715 143 148 144 
-2.642857 0.142857 -18.285715 143 148 144 
-2.607143 0.142857 -18.285715 143 148 144 
-2.571429 0.142857 -18.285715 143 148 144 
-2.535714 0.142857 -18.285715 143 148 144 
-2.500000 0.142857 -18.285715 143 148 144 
-2.464286 0.142857 -18.285715 143 148 144 
-1.444887 0.084993 -10.879150 144 149 145 
-1.423639 0.084993 -10.879150 144 149 145 
-1.400530 0.084881 -10.864721 144 149 145 
-1.379310 0.084881 -10.864721 144 149 145 
-1.358090 0.084881 -10.864721 144 149 145 
-1.335099 0.084768 -10.850331 144 149 145 
-1.313907 0.084768 -10.850331 144 149 145 
-1.294430 0.084881 -10.864721 144 149 145 
-0.616025 0.066597 -8.524454 146 151 147 
-0.598753 0.066528 -8.515593 147 152 148 
-0.582121 0.066528 -8.515593 147 152 148 
-0.564901 0.066459 -8.506750 147 152 148 
-0.548287 0.066459 -8.506750 147 152 148 
-0.531672 0.066459 -8.506750 146 150 147 
-0.515593 0.066528 -8.515593 146 150 147 
-0.498960 0.066528 -8.515593 146 150 147 
-0.481828 0.066459 -8.506750 146 150 147 
-0.465213 0.066459 -8.506750 146 150 147 
-0.449064 0.066528 -8.515593 146 150 147 
-0.432432 0.066528 -8.515593 146 150 147 
-0.416233 0.066597 -8.524454 146 150 147 
0.619529 0.107744 -13.791245 150 155 151 
0.635762 0.105960 -13.562914 150 155 151 
0.662252 0.105960 -13.562914 150 155 151 
0.732026 0.104575 -13.385621 151 156 152 
0.749596 0.103393 -13.234249 152 157 153 
0.774194 0.103226 -13.212903 152 157 153 
0.800000 0.103226 -13.212903 153 158 154 
0.825806 0.103226 -13.212903 152 157 153 
0.848875 0.102894 -13.170418 152 157 153 
0.873194 0.102729 -13.149278 152 157 153 
0.898876 0.102729 -13.149278 153 158 154 
0.923077 0.102564 -13.128205 154 159 155 
0.948718 0.102564 -13.128205 154 159 155 
0.972800 0.102400 -13.107200 154 159 155 
0.995215 0.102073 -13.065391 154 159 155 
1.020734 0.102073 -13.065391 154 159 155 
1.147327 0.041721 -5.340287 155 157 156 
1.157003 0.041694 -5.336808 155 157 156 
1.167427 0.041694 -5.336808 153 157 154 
1.177083 0.041667 -5.333333 152 157 153 
1.187500 0.041667 -5.333333 152 157 153 
1.197917 0.041667 -5.333333 152 157 153 
1.208333 0.041667 -5.333333 152 157 153 
1.218750 0.041667 -5.333333 152 157 153 
1.229167 0.041667 -5.333333 152 157 153 
1.239583 0.041667 -5.333333 152 157 153 
1.250000 0.041667 -5.333333 153 158 154 
1.396396 0.036036 -4.612613 152 154 153 
1.405405 0.036036 -4.612613 152 154 153 
1.414414 0.036036 -4.612613 152 154 153 
1.423423 0.036036 -4.612613 152 154 154 
1.432432 0.036036 -4.612613 151 154 155 
1.441441 0.036036 -4.612613 153 155 155 
1.450450 0.036036 -4.612613 154 156 155 
1.459459 0.036036 -4.612613 154 156 155 
1.468468 0.036036 -4.612613 154 156 155 
1.477477 0.036036 -4.612613 154 156 155 
1.486486 0.036036 -4.612613 153 155 154 
1.495495 0.036036 -4.612613 153 155 154 
1.656449 0.037016 -4.737999 153 155 154 
1.665703 0.037016 -4.737999 152 154 153 
1.674957 0.037016 -4.737999 151 153 152 
1.684211 0.037016 -4.737999 151 153 152 
1.693464 0.037016 -4.737999 151 153 152 
1.703704 0.037037 -4.740741 149 153 152 
1.712963 0.037037 -4.740741 148 152 152 
1.722222 0.037037 -4.740741 149 152 152 
1.731481 0.037037 -4.740741 150 152 151 
1.740741 0.037037 -4.740741 150 152 151 
1.750000 0.037037 -4.740741 151 153 150 
1.759259 0.037037 -4.740741 149 153 150 
1.768519 0.037037 -4.740741 148 153 149 
1.777778 0.037037 -4.740741 148 152 149 
1.787037 0.037037 -4.740741 148 151 149 
1.796296 0.037037 -4.740741 148 151 149 
1.805556 0.037037 -4.740741 148 151 149 
1.998843 0.037016 -4.737999 145 149 146 
2.006936 0.036994 -4.735260 144 149 145 
2.015020 0.036973 -4.732524 144 149 145 
2.024263 0.036973 -4.732524 144 149 145 
2.033507 0.036973 -4.732524 143 148 144 
2.099099 0.036036 -4.612613 142 147 143 
2.108108 0.036036 -4.612613 141 146 142 
2.117117 0.036036 -4.612613 141 146 142 
2.126126 0.036036 -4.612613 141 146 142 
2.135135 0.036036 -4.612613 141 146 142 
2.144144 0.036036 -4.612613 141 146 142 
2.153153 0.036036 -4.612613 141 146 142 
2.162162 0.036036 -4.612613 141 146 142 
2.171171 0.036036 -4.612613 141 146 142 
2.180180 0.036036 -4.612613 141 146 142 
2.189189 0.036036 -4.612613 141 146 142 
2.198198 0.036036 -4.612613 141 146 142 
2.207207 0.036036 -4.612613 141 146 142 
2.216216 0.036036 -4.612613 141 146 142 
2.225225 0.036036 -4.612613 141 146 142 
2.234234 0.036036 -4.612613 141 146 142 
2.357798 0.036697 -4.697248 139 144 140 
2.366972 0.036697 -4.697248 139 144 140 
2.377510 0.036718 -4.699943 139 144 140 
2.388060 0.036739 -4.702641 139 144 140 
2.402762 0.036824 -4.713464 139 144 140 
2.418927 0.036930 -4.727063 138 143 139 
2.428159 0.036930 -4.727063 138 143 139 
2.437392 0.036930 -4.727063 138 143 139 
2.445213 0.036909 -4.724337 138 143 139 
2.453026 0.036888 -4.721614 138 143 139 
2.463668 0.036909 -4.724337 138 143 139 
2.475751 0.036952 -4.729792 139 144 140 
2.489300 0.037016 -4.737999 138 143 139 
2.497110 0.036994 -4.735260 138 143 139 
2.506358 0.036994 -4.735260 137 142 138 
2.495496 0.036036 -4.612613 137 142 138 
2.504504 0.036036 -4.612613 137 142 138 
2.531532 0.036036 -4.612613 137 142 138 
2.540540 0.036036 -4.612613 137 142 138 
2.549550 0.036036 -4.612613 137 142 138 
2.558558 0.036036 -4.612613 137 142 138 
2.567568 0.036036 -4.612613 137 142 138 
2.576576 0.036036 -4.612613 137 142 138 
2.585586 0.036036 -4.612613 137 142 138 
2.594594 0.036036 -4.612613 137 142 138 
2.603604 0.036036 -4.612613 137 142 138 
2.612613 0.036036 -4.612613 136 141 137 
2.621622 0.036036 -4.612613 136 141 137 
2.630631 0.036036 -4.612613 135 140 136 
2.639640 0.036036 -4.612613 135 140 136 
2.648649 0.036036 -4.612613 135 140 136 
2.657658 0.036036 -4.612613 135 140 136 
2.666667 0.036036 -4.612613 138 140 138 
2.675676 0.036036 -4.612613 138 139 139 
-6.500000 0.093750 -16.000000 159 161 151 
-6.468750 0.093750 -16.000000 146 149 140 
-6.437500 0.093750 -16.000000 116 118 109 
-1.300000 0.037500 -6.400000 140 145 141 
-1.287500 0.037500 -6.400000 140 145 141 
-1.275000 0.037500 -6.400000 140 145 141 
-1.262500 0.037500 -6.400000 140 145 141 
-1.250000 0.037500 -6.400000 141 146 142 
-1.237500 0.037500 -6.400000 141 146 142 
-1.225000 0.037500 -6.400000 141 146 142 
-1.212500 0.037500 -6.400000 141 146 142 
-1.200000 0.037500 -6.400000 141 146 142 
-2.385965 0.084211 -14.371930 142 147 143 
-2.353765 0.084063 -14.346760 143 148 144 
-2.321678 0.083916 -14.321678 143 148 144 
-2.293706 0.083916 -14.321678 143 148 144 
-2.899329 0.107383 -18.326622 143 148 144 
-2.857143 0.107143 -18.285715 143 148 144 
-2.821429 0.107143 -18.285715 143 148 144 
-2.785714 0.107143 -18.285715 143 148 144 
-2.750000 0.107143 -18.285715 143 148 144 
-2.714286 0.107143 -18.285715 143 148 144 
-2.678571 0.107143 -18.285715 143 148 144 
-2.642857 0.107143 -18.285715 143 148 144 
-2.607143 0.107143 -18.285715 143 148 144 
-2.571429 0.107143 -18.285715 143 148 144 
-2.535714 0.107143 -18.285715 143 148 144 
-1.446808 0.063830 -10.893617 144 149 145 
-1.421751 0.063660 -10.864721 144 149 145 
-1.396825 0.063492 -10.835979 144 149 145 
-1.375661 0.063492 -10.835979 144 149 145 
-1.354497 0.063492 -10.835979 144 149 145 
-1.333333 0.063492 -10.835979 144 149 145 
-1.312169 0.063492 -10.835979 144 149 145 
-1.292715 0.063576 -10.850331 144 149 145 
-0.632017 0.049896 -8.515593 146 151 147 
-0.615385 0.049896 -8.515593 146 151 147 
-0.598753 0.049896 -8.515593 146 151 147 
-0.582121 0.049896 -8.515593 147 152 148 
-0.564901 0.049844 -8.506750 148 153 149 
-0.548287 0.049844 -8.506750 147 152 148 
-0.531672 0.049844 -8.506750 145 150 146 
-0.515057 0.049844 -8.506750 145 150 146 
-0.498442 0.049844 -8.506750 145 150 146 
-0.481828 0.049844 -8.506750 145 150 146 
-0.465213 0.049844 -8.506750 145 150 146 
-0.449064 0.049896 -8.515593 145 150 146 
-0.432882 0.049948 -8.524454 145 150 146 
-0.416233 0.049948 -8.524454 145 150 146 
0.594595 0.081081 -13.837838 150 155 151 
0.617450 0.080537 -13.744967 150 155 151 
0.637874 0.079734 -13.607973 149 154 150 
0.662252 0.079470 -13.562914 149 154 150 
0.683087 0.078818 -13.451560 149 154 150 
0.708197 0.078689 -13.429508 149 154 150 
0.732026 0.078431 -13.385621 150 155 151 
0.755700 0.078176 -13.342019 151 156 152 
0.779221 0.077922 -13.298701 152 157 153 
0.800000 0.077419 -13.212903 152 157 153 
0.825806 0.077419 -13.212903 151 156 152 
0.848875 0.077170 -13.170418 152 157 153 
0.873194 0.077047 -13.149278 152 157 153 
0.898876 0.077047 -13.149278 153 158 154 
0.924559 0.077047 -13.149278 153 158 154 
0.948718 0.076923 -13.128205 154 159 155 
0.974359 0.076923 -13.128205 154 159 155 
0.995215 0.076555 -13.065391 154 159 155 
1.019108 0.076433 -13.044586 153 158 154 
1.044586 0.076433 -13.044586 153 158 154 
1.157003 0.031270 -5.336808 154 157 155 
1.166667 0.031250 -5.333333 152 156 153 
1.177083 0.031250 -5.333333 152 157 153 
1.187500 0.031250 -5.333333 152 157 153 
1.197137 0.031230 -5.329864 153 158 154 
1.208333 0.031250 -5.333333 152 157 153 
1.217957 0.031230 -5.329864 152 157 153 
1.228367 0.031230 -5.329864 152 157 153 
1.238777 0.031230 -5.329864 152 157 153 
1.250000 0.031250 -5.333333 152 157 153 
1.396396 0.027027 -4.612613 152 154 153 
1.405405 0.027027 -4.612613 152 154 153 
1.414414 0.027027 -4.612613 152 154 153 
1.423423 0.027027 -4.612613 152 154 153 
1.432432 0.027027 -4.612613 152 154 153 
1.441441 0.027027 -4.612613 153 155 154 
1.450450 0.027027 -4.612613 154 156 155 
1.459459 0.027027 -4.612613 154 156 155 
1.468468 0.027027 -4.612613 154 156 155 
1.477477 0.027027 -4.612613 154 156 155 
1.486486 0.027027 -4.612613 153 155 154 
1.495495 0.027027 -4.612613 153 155 154 
1.665703 0.027762 -4.737999 152 154 153 
1.674957 0.027762 -4.737999 151 153 152 
1.684211 0.027762 -4.737999 151 153 152 
1.693464 0.027762 -4.737999 151 153 152 
1.702718 0.027762 -4.737999 149 152 153 
1.711972 0.027762 -4.737999 148 152 153 
1.721226 0.027762 -4.737999 149 152 152 
1.730480 0.027762 -4.737999 150 152 151 
1.740741 0.027778 -4.740741 150 152 150 
1.748988 0.027762 -4.737999 150 153 150 
1.758242 0.027762 -4.737999 149 154 150 
1.768519 0.027778 -4.740741 147 152 148 
1.777778 0.027778 -4.740741 148 151 149 
1.787037 0.027778 -4.740741 149 151 150 
1.797336 0.027794 -4.743486 149 151 150 
1.805556 0.027778 -4.740741 149 151 150 
1.934066 0.027762 -4.737999 147 149 148 
1.942196 0.027746 -4.735260 147 149 148 
1.990741 0.027778 -4.740741 146 148 147 
1.998843 0.027762 -4.737999 145 149 146 
2.006936 0.027746 -4.735260 144 149 145 
2.016185 0.027746 -4.735260 144 149 145 
2.024263 0.027730 -4.732524 143 148 144 
2.033507 0.027730 -4.732524 143 148 144 
2.042750 0.027730 -4.732524 143 148 144 
2.053179 0.027746 -4.735260 143 148 144 
2.099099 0.027027 -4.612613 141 146 142 
2.108108 0.027027 -4.612613 141 146 142 
2.117117 0.027027 -4.612613 140 145 141 
2.126126 0.027027 -4.612613 141 146 142 
2.135135 0.027027 -4.612613 141 146 142 
2.144144 0.027027 -4.612613 141 146 142 
2.153153 0.027027 -4.612613 141 146 142 
2.162162 0.027027 -4.612613 141 146 142 
2.171171 0.027027 -4.612613 141 146 142 
2.180180 0.027027 -4.612613 141 146 142 
2.189189 0.027027 -4.612613 141 146 142 
2.198198 0.027027 -4.612613 141 146 142 
2.207207 0.027027 -4.612613 141 146 142 
2.216216 0.027027 -4.612613 141 146 142 
2.225225 0.027027 -4.612613 141 146 142 
2.234234 0.027027 -4.612613 141 146 142 
2.356447 0.027507 -4.694556 139 144 140 
2.366972 0.027523 -4.697248 139 144 140 
2.377510 0.027539 -4.699943 139 144 140 
2.388060 0.027555 -4.702641 139 144 140 
2.406916 0.027666 -4.721614 138 143 139 
2.421721 0.027730 -4.732524 138 143 139 
2.430965 0.027730 -4.732524 137 142 138 
2.438799 0.027714 -4.729792 138 143 139 
2.448037 0.027714 -4.729792 138 143 139 
2.457275 0.027714 -4.729792 138 143 139 
2.466513 0.027714 -4.729792 138 143 139 
2.480046 0.027762 -4.737999 139 144 140 
2.490741 0.027778 -4.740741 138 143 139 
2.500000 0.027778 -4.740741 138 143 139 
2.507808 0.027762 -4.737999 137 142 138 
2.517062 0.027762 -4.737999 136 141 137 
2.495496 0.027027 -4.612613 137 142 138 
2.504504 0.027027 -4.612613 137 142 138 
2.513514 0.027027 -4.612613 138 143 139 
2.522522 0.027027 -4.612613 137 142 138 
2.531532 0.027027 -4.612613 137 142 138 
2.540540 0.027027 -4.612613 137 142 138 
2.549550 0.027027 -4.612613 137 142 138 
2.558558 0.027027 -4.612613 137 142 138 
2.567568 0.027027 -4.612613 137 142 138 
2.576576 0.027027 -4.612613 137 142 138 
2.585586 0.027027 -4.612613 137 142 138 
2.594594 0.027027 -4.612613 137 142 138 
2.603604 0.027027 -4.612613 136 141 137 
2.612613 0.027027 -4.612613 136 141 137 
2.621622 0.027027 -4.612613 135 140 136 
2.630631 0.027027 -4.612613 135 140 136 
2.639640 0.027027 -4.612613 135 140 136 
2.648649 0.027027 -4.612613 135 140 136 
2.657658 0.027027 -4.612613 135 140 136 
2.666667 0.027027 -4.612613 138 140 138 
2.675676 0.027027 -4.612613 139 139 139 
-6.500000 0.062500 -16.000000 163 165 156 
-6.468750 0.062500 -16.000000 151 153 144 
-6.437500 0.062500 -16.000000 119 121 112 
-1.287500 0.025000 -6.400000 140 145 141 
-1.275000 0.025000 -6.400000 140 145 141 
-1.262500 0.025000 -6.400000 140 145 141 
-1.250000 0.025000 -6.400000 141 146 142 
-1.237500 0.025000 -6.400000 141 146 142 
-1.225000 0.025000 -6.400000 141 146 142 
-1.212500 0.025000 -6.400000 141 146 142 
-2.928571 0.071429 -18.285715 143 148 144 
-2.892857 0.071429 -18.285715 143 148 144 
-2.857143 0.071429 -18.285715 143 148 144 
-2.821429 0.071429 -18.285715 143 148 144 
-2.785714 0.071429 -18.285715 143 148 144 
-2.750000 0.071429 -18.285715 143 148 144 
-2.714286 0.071429 -18.285715 143 148 144 
-2.678571 0.071429 -18.285715 143 148 144 
-2.642857 0.071429 -18.285715 143 148 144 
-2.571429 0.071429 -18.285715 143 148 144 
-1.421751 0.042440 -10.864721 144 149 145 
-1.393140 0.042216 -10.807388 144 149 145 
-1.372032 0.042216 -10.807388 144 149 145 
-1.350924 0.042216 -10.807388 144 149 145 
-1.329815 0.042216 -10.807388 144 149 145 
-1.308707 0.042216 -10.807388 144 149 145 
-0.681913 0.033264 -8.515593 146 151 147 
-0.664590 0.033229 -8.506750 146 151 147 
-0.647975 0.033229 -8.506750 146 151 147 
-0.631360 0.033229 -8.506750 146 151 147 
-0.614746 0.033229 -8.506750 146 151 147 
-0.598131 0.033229 -8.506750 146 151 147 
-0.581516 0.033229 -8.506750 147 152 148 
-0.564901 0.033229 -8.506750 148 153 149 
-0.548287 0.033229 -8.506750 147 152 148 
-0.531672 0.033229 -8.506750 145 150 146 
-0.515057 0.033229 -8.506750 145 150 146 
-0.498442 0.033229 -8.506750 145 150 146 
-0.481828 0.033229 -8.506750 145 150 146 
-0.465213 0.033229 -8.506750 145 150 146 
-0.449064 0.033264 -8.515593 145 150 146 
-0.432882 0.033299 -8.524454 145 150 146 
0.568528 0.054146 -13.861252 149 154 150 
0.593592 0.053963 -13.814503 149 154 150 
0.617450 0.053691 -13.744967 149 154 150 
0.638935 0.053245 -13.630615 149 154 150 
0.658979 0.052718 -13.495881 149 154 150 
0.683087 0.052545 -13.451560 149 154 150 
0.705882 0.052288 -13.385621 149 154 150 
0.732026 0.052288 -13.385621 150 155 151 
0.758170 0.052288 -13.385621 150 155 151 
0.781759 0.052117 -13.342019 151 156 152 
0.805195 0.051948 -13.298701 152 157 153 
0.825806 0.051613 -13.212903 151 156 152 
0.848875 0.051447 -13.170418 152 157 153 
0.873194 0.051364 -13.149278 152 157 153 
0.898876 0.051364 -13.149278 153 158 154 
0.924559 0.051364 -13.149278 153 158 154 
0.948718 0.051282 -13.128205 153 158 154 
0.974359 0.051282 -13.128205 153 158 154 
0.995215 0.051037 -13.065391 153 158 154 
1.020734 0.051037 -13.065391 153 158 154 
1.046252 0.051037 -13.065391 153 158 154 
1.167427 0.020847 -5.336808 152 156 153 
1.177083 0.020833 -5.333333 152 157 153 
1.187500 0.020833 -5.333333 152 157 153 
1.197917 0.020833 -5.333333 153 158 154 
1.208333 0.020833 -5.333333 152 157 153 
1.218750 0.020833 -5.333333 152 157 153 
1.229167 0.020833 -5.333333 152 157 153 
1.239583 0.020833 -5.333333 152 157 153 
1.396396 0.018018 -4.612613 151 153 152 
1.405405 0.018018 -4.612613 151 153 152 
1.414414 0.018018 -4.612613 151 153 152 
1.423423 0.018018 -4.612613 151 153 152 
1.432432 0.018018 -4.612613 151 153 152 
1.441441 0.018018 -4.612613 152 154 153 
1.450450 0.018018 -4.612613 153 155 154 
1.459459 0.018018 -4.612613 153 155 154 
1.468468 0.018018 -4.612613 153 155 154 
1.477477 0.018018 -4.612613 154 156 155 
1.486486 0.018018 -4.612613 153 155 154 
1.495495 0.018018 -4.612613 153 155 154 
1.674957 0.018508 -4.737999 151 153 152 
1.684211 0.018508 -4.737999 151 153 152 
1.693464 0.018508 -4.737999 151 153 152 
1.702718 0.018508 -4.737999 149 152 153 
1.711972 0.018508 -4.737999 148 152 153 
1.721226 0.018508 -4.737999 148 152 152 
1.730480 0.018508 -4.737999 149 152 151 
1.739734 0.018508 -4.737999 150 152 150 
1.748988 0.018508 -4.737999 149 153 150 
1.758242 0.018508 -4.737999 149 154 149 
1.767496 0.018508 -4.737999 147 152 147 
1.924812 0.018508 -4.737999 147 149 148 
1.932948 0.018497 -4.735260 147 149 148 
1.941074 0.018486 -4.732524 147 149 148 
1.951445 0.018497 -4.735260 147 149 148 
1.990741 0.018519 -4.740741 146 148 147 
2.000000 0.018519 -4.740741 145 149 146 
2.008097 0.018508 -4.737999 144 149 145 
2.017351 0.018508 -4.737999 144 149 145 
2.025434 0.018497 -4.735260 143 148 144 
2.034682 0.018497 -4.735260 143 148 144 
2.043931 0.018497 -4.735260 143 148 144 
2.051993 0.018486 -4.732524 143 148 144 
2.062428 0.018497 -4.735260 143 148 144 
2.099099 0.018018 -4.612613 141 146 142 
2.108108 0.018018 -4.612613 141 146 142 
2.117117 0.018018 -4.612613 140 145 141 
2.126126 0.018018 -4.612613 141 146 142 
2.135135 0.018018 -4.612613 141 146 142 
2.144144 0.018018 -4.612613 141 146 142 
2.153153 0.018018 -4.612613 141 146 142 
2.162162 0.018018 -4.612613 141 146 142 
2.171171 0.018018 -4.612613 141 146 142 
2.180180 0.018018 -4.612613 141 146 142 
2.189189 0.018018 -4.612613 141 146 142 
2.198198 0.018018 -4.612613 141 146 142 
2.207207 0.018018 -4.612613 141 146 142 
2.216216 0.018018 -4.612613 141 146 142 
2.225225 0.018018 -4.612613 141 146 142 
2.234234 0.018018 -4.612613 141 146 142 
2.356447 0.018338 -4.694556 139 144 140 
2.366972 0.018349 -4.697248 139 144 140 
2.377510 0.018359 -4.699943 139 144 140 
2.388060 0.018370 -4.702641 139 144 140 
2.408304 0.018454 -4.724337 138 143 139 
2.421721 0.018486 -4.732524 138 143 139 
2.430965 0.018486 -4.732524 137 142 138 
2.440208 0.018486 -4.732524 138 143 139 
2.449451 0.018486 -4.732524 138 143 139 
2.460116 0.018497 -4.735260 138 143 139 
2.470792 0.018508 -4.737999 138 143 139 
2.481482 0.018519 -4.740741 139 144 140 
2.490741 0.018519 -4.740741 138 143 139 
2.500000 0.018519 -4.740741 138 143 139 
2.507808 0.018508 -4.737999 137 142 138 
2.517062 0.018508 -4.737999 136 141 137 
2.495496 0.018018 -4.612613 137 142 138 
2.504504 0.018018 -4.612613 137 142 138 
2.513514 0.018018 -4.612613 138 143 139 
2.522522 0.018018 -4.612613 137 142 138 
2.531532 0.018018 -4.612613 137 142 138 
2.540540 0.018018 -4.612613 137 142 138 
2.549550 0.018018 -4.612613 137 142 138 
2.558558 0.018018 -4.612613 137 142 138 
2.567568 0.018018 -4.612613 137 142 138 
2.576576 0.018018 -4.612613 137 142 138 
2.585586 0.018018 -4.612613 137 142 138 
2.594594 0.018018 -4.612613 137 142 138 
2.603604 0.018018 -4.612613 136 141 137 
2.612613 0.018018 -4.612613 136 141 137 
2.621622 0.018018 -4.612613 135 140 136 
2.630631 0.018018 -4.612613 135 140 136 
2.639640 0.018018 -4.612613 135 140 136 
2.648649 0.018018 -4.612613 135 140 136 
2.657658 0.018018 -4.612613 135 140 136 
2.666667 0.018018 -4.612613 138 139 138 
-6.500000 0.031250 -16.000000 163 165 156 
-6.468750 0.031250 -16.000000 153 154 146 
-6.437500 0.031250 -16.000000 124 125 117 
-1.565217 0.014493 -7.420290 138 143 139 
-1.550725 0.014493 -7.420290 139 144 140 
-1.275000 0.012500 -6.400000 140 145 141 
-1.262500 0.012500 -6.400000 140 145 141 
-1.250000 0.012500 -6.400000 141 146 142 
-1.237500 0.012500 -6.400000 141 146 142 
-1.225000 0.012500 -6.400000 141 146 142 
-2.892857 0.035714 -18.285715 143 148 144 
-2.857143 0.035714 -18.285715 143 148 144 
-2.821429 0.035714 -18.285715 143 148 144 
-2.785714 0.035714 -18.285715 143 148 144 
-2.750000 0.035714 -18.285715 143 148 144 
-2.714286 0.035714 -18.285715 143 148 144 
-2.678571 0.035714 -18.285715 143 148 144 
-2.642857 0.035714 -18.285715 143 148 144 
-2.571429 0.035714 -18.285715 143 148 144 
-1.393140 0.021108 -10.807388 144 149 145 
-1.372032 0.021108 -10.807388 144 149 145 
-1.350924 0.021108 -10.807388 144 149 145 
-1.328063 0.021080 -10.793149 144 149 145 
-1.306983 0.021080 -10.793149 144 149 145 
-0.699272 0.016649 -8.524454 146 151 147 
-0.680498 0.016598 -8.497926 146 151 147 
-0.663212 0.016580 -8.489120 146 151 147 
-0.645963 0.016563 -8.480331 146 151 147 
-0.628749 0.016546 -8.471561 146 151 147 
-0.612203 0.016546 -8.471561 146 151 147 
-0.596273 0.016563 -8.480331 146 151 147 
-0.579710 0.016563 -8.480331 147 152 148 
-0.563147 0.016563 -8.480331 147 152 148 
-0.546584 0.016563 -8.480331 147 152 148 
-0.530021 0.016563 -8.480331 145 150 146 
-0.513990 0.016580 -8.489120 145 150 146 
-0.497409 0.016580 -8.489120 145 150 146 
-0.480829 0.016580 -8.489120 145 150 146 
-0.464249 0.016580 -8.489120 145 150 146 
-0.448598 0.016615 -8.506750 145 150 146 
0.568528 0.027073 -13.861252 148 153 149 
0.593592 0.026981 -13.814503 148 153 149 
0.620573 0.026981 -13.814503 148 153 149 
0.644295 0.026846 -13.744967 149 154 150 
0.658979 0.026359 -13.495881 149 154 150 
0.684211 0.026316 -13.473684 149 154 150 
0.707038 0.026187 -13.407529 149 154 150 
0.733224 0.026187 -13.407529 149 154 150 
0.758170 0.026144 -13.385621 150 155 151 
0.783034 0.026101 -13.363785 150 155 151 
0.807818 0.026059 -13.342019 151 156 152 
0.827141 0.025848 -13.234249 151 156 152 
0.848875 0.025723 -13.170418 152 157 153 
0.873194 0.025682 -13.149278 152 157 153 
0.898876 0.025682 -13.149278 153 158 154 
0.924559 0.025682 -13.149278 152 157 153 
0.948718 0.025641 -13.128205 152 157 153 
0.974359 0.025641 -13.128205 152 157 153 
0.996805 0.025559 -13.086262 152 157 153 
1.020734 0.025518 -13.065391 153 158 154 
1.396396 0.009009 -4.612613 151 153 152 
1.405405 0.009009 -4.612613 150 152 151 
1.414414 0.009009 -4.612613 150 152 151 
1.423423 0.009009 -4.612613 150 152 151 
1.432432 0.009009 -4.612613 150 152 151 
1.441441 0.009009 -4.612613 151 153 152 
1.450450 0.009009 -4.612613 152 154 153 
1.459459 0.009009 -4.612613 152 154 153 
1.468468 0.009009 -4.612613 152 154 153 
1.477477 0.009009 -4.612613 153 155 154 
1.486486 0.009009 -4.612613 153 155 154 
1.495495 0.009009 -4.612613 153 155 154 
1.702718 0.009254 -4.737999 149 152 153 
1.711972 0.009254 -4.737999 148 152 153 
1.721226 0.009254 -4.737999 148 152 153 
1.730480 0.009254 -4.737999 149 152 151 
1.739734 0.009254 -4.737999 149 152 150 
1.748988 0.009254 -4.737999 149 154 150 
1.758242 0.009254 -4.737999 149 154 149 
1.925926 0.009259 -4.740741 147 149 148 
1.934066 0.009254 -4.737999 147 149 148 
1.942196 0.009249 -4.735260 147 149 148 
1.951445 0.009249 -4.735260 147 149 148 
1.990741 0.009259 -4.740741 146 148 147 
2.000000 0.009259 -4.740741 145 149 146 
2.008097 0.009254 -4.737999 144 149 145 
2.017351 0.009254 -4.737999 144 149 145 
2.025434 0.009249 -4.735260 143 148 144 
2.034682 0.009249 -4.735260 143 148 144 
2.043931 0.009249 -4.735260 143 148 144 
2.051993 0.009243 -4.732524 143 148 144 
2.061236 0.009243 -4.732524 143 148 144 
2.108108 0.009009 -4.612613 141 146 142 
2.117117 0.009009 -4.612613 140 145 141 
2.126126 0.009009 -4.612613 141 146 142 
2.135135 0.009009 -4.612613 141 146 142 
2.144144 0.009009 -4.612613 141 146 142 
2.153153 0.009009 -4.612613 141 146 142 
2.162162 0.009009 -4.612613 141 146 142 
2.171171 0.009009 -4.612613 141 146 142 
2.180180 0.009009 -4.612613 141 146 142 
2.189189 0.009009 -4.612613 141 146 142 
2.198198 0.009009 -4.612613 141 146 142 
2.207207 0.009009 -4.612613 141 146 142 
2.216216 0.009009 -4.612613 141 146 142 
2.225225 0.009009 -4.612613 141 146 142 
2.234234 0.009009 -4.612613 141 146 142 
2.243243 0.009009 -4.612613 140 145 141 
2.290909 0.009091 -4.654545 139 144 140 
