ply
format ascii 1.0
element vertex 1144
property float x
property float y
property float z
property uchar red
property uchar green
property uchar blue
end_header
2.905344 1.988410 -5.274952 89 96 104 
2.915647 1.988410 -5.274952 91 95 103 
2.925950 1.988410 -5.274952 90 97 104 
1.144526 2.242336 -5.979562 249 254 255 
1.151163 2.232558 -5.953488 250 254 254 
1.162791 2.232558 -5.953488 250 254 254 
1.172714 2.229318 -5.944848 252 255 254 
1.184325 2.229318 -5.944848 253 255 254 
1.195069 2.227701 -5.940536 253 254 253 
2.852713 1.984496 -5.291990 211 224 237 
2.861201 1.983215 -5.288573 136 147 161 
2.867827 1.980658 -5.281754 99 107 120 
2.876289 1.979381 -5.278350 92 99 110 
2.886598 1.979381 -5.278350 89 98 105 
2.896907 1.979381 -5.278350 87 96 103 
2.905344 1.978107 -5.274952 87 96 102 
2.915647 1.978107 -5.274952 89 96 102 
2.925950 1.978107 -5.274952 89 98 103 
1.162791 2.220930 -5.953488 249 254 254 
1.174419 2.220930 -5.953488 251 255 254 
1.184325 2.217707 -5.944848 252 255 254 
2.856404 1.976714 -5.298836 215 227 240 
2.863049 1.974160 -5.291990 139 149 165 
2.869677 1.971613 -5.285161 98 106 121 
2.878143 1.970342 -5.281754 92 100 112 
2.886598 1.969072 -5.278350 89 98 106 
2.896907 1.969072 -5.278350 87 96 103 
2.907217 1.969072 -5.278350 86 95 101 
2.915647 1.967804 -5.274952 87 96 101 
2.927835 1.969072 -5.278350 87 98 101 
2.938144 1.969072 -5.278350 90 102 104 
2.861957 1.970188 -5.309138 218 230 243 
2.864900 1.965094 -5.295411 142 151 169 
2.873385 1.963824 -5.291990 95 103 120 
2.880000 1.961290 -5.285161 93 100 115 
2.888459 1.960026 -5.281754 90 98 108 
2.896907 1.958763 -5.278350 88 96 103 
2.907217 1.958763 -5.278350 86 95 102 
2.917526 1.958763 -5.278350 86 95 101 
2.927835 1.958763 -5.278350 86 97 100 
2.938144 1.958763 -5.278350 88 101 103 
2.867532 1.963636 -5.319480 216 228 243 
2.872327 1.959818 -5.309138 142 151 169 
2.875242 1.954751 -5.295411 93 100 118 
2.883721 1.953488 -5.291990 93 100 115 
2.890323 1.950968 -5.285161 91 98 109 
2.898775 1.949710 -5.281754 89 96 104 
2.907217 1.948454 -5.278350 87 94 102 
2.917526 1.948454 -5.278350 86 94 100 
2.927835 1.948454 -5.278350 87 96 101 
2.940039 1.949710 -5.281754 89 101 104 
2.873129 1.957059 -5.329864 213 225 241 
2.877922 1.953247 -5.319480 137 147 164 
2.882696 1.949449 -5.309138 92 100 116 
2.885585 1.944409 -5.295411 92 99 113 
2.894057 1.943152 -5.291990 93 99 110 
2.902518 1.941898 -5.288573 91 96 105 
2.909091 1.939394 -5.281754 88 93 101 
2.919407 1.939394 -5.281754 88 93 101 
2.929723 1.939394 -5.281754 89 96 102 
2.876873 1.949186 -5.336808 207 220 234 
2.883539 1.946649 -5.329864 125 136 151 
2.888312 1.942857 -5.319480 90 98 112 
2.893065 1.939080 -5.309138 91 99 111 
2.897801 1.935317 -5.298836 93 99 110 
2.906270 1.934066 -5.295411 90 95 106 
2.912847 1.931569 -5.288573 88 92 102 
2.921290 1.930323 -5.285161 88 93 101 
2.935400 1.932817 -5.291990 89 95 102 
2.882507 1.942559 -5.347259 191 205 221 
2.887296 1.938762 -5.336808 112 124 140 
2.893949 1.936239 -5.329864 89 98 112 
2.898701 1.932468 -5.319480 89 98 109 
2.905318 1.929961 -5.312581 89 98 107 
2.910032 1.926214 -5.302265 88 96 106 
2.916613 1.923723 -5.295411 87 94 104 
2.925065 1.922481 -5.291990 87 94 102 
2.939198 1.924968 -5.298836 89 96 103 
2.892950 1.932115 -5.347259 104 116 134 
2.897720 1.928339 -5.336808 92 101 116 
2.904359 1.925830 -5.329864 89 98 110 
2.910981 1.923327 -5.322937 85 96 105 
2.919481 1.922078 -5.319480 85 97 105 
2.924174 1.918341 -5.309138 86 96 105 
2.928849 1.914618 -5.298836 86 95 103 
2.948735 1.920831 -5.316029 87 97 103 
2.903394 1.921671 -5.347259 91 100 115 
2.908143 1.917915 -5.336808 89 96 109 
2.916667 1.916667 -5.333333 86 95 106 
2.925179 1.915420 -5.329864 86 97 106 
2.931774 1.912930 -5.322937 87 97 105 
2.942170 1.912930 -5.322937 85 96 101 
2.922374 1.909980 -5.343771 88 95 106 
2.930900 1.908735 -5.340287 88 97 107 
2.941330 1.908735 -5.340287 88 98 106 
2.949309 1.917051 -5.393022 87 95 104 
2.955950 1.914530 -5.385931 88 96 105 
2.959049 1.912814 -5.410832 88 94 101 
2.959049 1.902246 -5.410832 89 94 99 
-0.495533 1.524717 -4.879095 137 150 164 
-0.485714 1.523810 -4.876191 136 149 162 
-0.516129 1.519713 -4.893668 134 146 158 
-0.505364 1.516091 -4.882002 135 147 163 
-0.495238 1.514286 -4.876191 137 149 165 
-0.485714 1.514286 -4.876191 137 149 162 
-0.476190 1.514286 -4.876191 135 148 158 
6.275619 4.494699 -14.473498 215 190 145 
6.237762 4.447553 -14.321678 225 209 183 
6.254799 4.439791 -14.296684 232 236 231 
-0.516129 1.510155 -4.893668 134 146 159 
-0.505967 1.508353 -4.887828 135 147 163 
-0.495828 1.506555 -4.882002 136 148 164 
-0.485714 1.504762 -4.876191 136 148 162 
-0.476474 1.505658 -4.879095 135 147 158 
6.247350 4.466431 -14.473498 219 180 132 
6.209790 4.419580 -14.321678 216 190 147 
6.216028 4.404181 -14.271777 227 211 185 
6.233044 4.396522 -14.246957 234 236 232 
6.260870 4.396522 -14.246957 235 246 250 
-0.638429 1.542050 -5.028852 132 147 154 
-0.628606 1.542050 -5.028852 132 146 153 
-0.526001 1.501494 -4.896593 132 145 154 
-0.516129 1.500597 -4.893668 134 146 158 
-0.505967 1.498807 -4.887828 135 147 162 
-0.496420 1.498807 -4.887828 136 148 163 
-0.486583 1.497913 -4.884913 135 147 161 
6.330935 4.517986 -14.733813 223 176 124 
6.247350 4.438162 -14.473498 222 181 135 
6.209790 4.391608 -14.321678 221 194 152 
6.216028 4.376307 -14.271777 229 214 189 
6.222222 4.361111 -14.222222 236 238 235 
6.250000 4.361111 -14.222222 236 247 251 
-0.860690 1.721379 -5.649655 139 152 161 
-0.638037 1.531288 -5.025767 132 146 154 
-0.628221 1.531288 -5.025767 131 145 154 
-0.589319 1.532228 -5.028852 130 145 153 
-0.578786 1.530349 -5.022686 130 145 152 
-0.516438 1.491931 -4.896593 133 145 156 
-0.506571 1.491039 -4.893668 134 147 159 
-0.497013 1.491039 -4.893668 135 147 160 
-0.487455 1.491039 -4.893668 134 146 159 
-0.190476 3.301587 -10.835979 225 192 162 
-0.169089 3.297226 -10.821665 224 192 161 
-0.148148 3.301587 -10.835979 224 193 160 
6.441176 4.588235 -15.058824 223 175 127 
6.330935 4.489209 -14.733813 225 176 125 
6.247350 4.409894 -14.473498 224 182 136 
6.198953 4.356021 -14.296684 224 196 156 
6.205217 4.340869 -14.246957 233 218 195 
6.222222 4.333333 -14.222222 237 240 238 
6.239168 4.325823 -14.197574 235 246 251 
-0.871123 1.709166 -5.645761 133 147 151 
-0.859504 1.707989 -5.641873 137 150 156 
-0.849070 1.709166 -5.645761 140 153 161 
-0.638037 1.521472 -5.025767 133 146 155 
-0.628221 1.521472 -5.025767 131 145 155 
-0.618785 1.522406 -5.028852 130 144 155 
-0.609337 1.523342 -5.031941 130 144 154 
-0.598773 1.521472 -5.025767 130 144 154 
-0.588596 1.520540 -5.022686 130 144 153 
-0.577723 1.517748 -5.013464 130 144 153 
-0.567931 1.517748 -5.013464 130 144 152 
-0.517056 1.484141 -4.902453 132 145 154 
-0.506874 1.482367 -4.896593 134 146 156 
-0.497310 1.482367 -4.896593 133 146 157 
-0.487455 1.481481 -4.893668 133 145 156 
-0.477327 1.479714 -4.887828 133 145 156 
-0.467501 1.478831 -4.884913 134 146 157 
-0.190728 3.284768 -10.850331 222 192 159 
-0.169089 3.276090 -10.821665 222 192 159 
-0.148148 3.280423 -10.835979 223 193 159 
6.718750 4.843750 -16.000000 218 173 125 
6.750000 4.843750 -16.000000 219 173 122 
6.631179 4.714829 -15.574144 219 174 130 
6.441176 4.558824 -15.058824 221 175 126 
6.330935 4.460432 -14.733813 223 175 125 
6.236331 4.373898 -14.447971 224 181 137 
6.198953 4.328098 -14.296684 225 197 159 
6.194445 4.305555 -14.222222 231 218 197 
6.211439 4.298094 -14.197574 233 238 236 
6.206897 4.275862 -14.124138 231 244 249 
6.234483 4.275862 -14.124138 231 247 254 
-0.881543 1.696970 -5.641873 130 144 147 
-0.869924 1.695802 -5.637990 132 146 148 
-0.858913 1.695802 -5.637990 136 150 154 
-0.848485 1.696970 -5.641873 140 153 158 
-0.638037 1.511656 -5.025767 134 147 156 
-0.628221 1.511656 -5.025767 132 146 155 
-0.618405 1.511656 -5.025767 131 145 154 
-0.608589 1.511656 -5.025767 130 144 153 
-0.598773 1.511656 -5.025767 129 143 153 
-0.588235 1.509804 -5.019608 129 143 152 
-0.577723 1.507956 -5.013464 129 143 152 
-0.567931 1.507956 -5.013464 128 142 151 
-0.518296 1.478104 -4.914217 132 145 152 
-0.507481 1.474566 -4.902453 133 146 154 
-0.497013 1.471924 -4.893668 133 146 154 
-0.487164 1.471045 -4.890746 131 144 153 
-0.477042 1.469290 -4.884913 131 143 154 
-0.467501 1.469290 -4.884913 133 145 156 
-0.190476 3.259259 -10.835979 223 193 160 
-0.169312 3.259259 -10.835979 222 192 158 
-0.148344 3.263576 -10.850331 222 192 158 
6.766798 4.869565 -16.189724 218 174 124 
6.718750 4.812500 -16.000000 218 173 123 
6.684720 4.765957 -15.845262 218 173 120 
6.715667 4.765957 -15.845262 217 174 123 
6.631179 4.684411 -15.574144 216 174 128 
6.441176 4.529412 -15.058824 219 174 124 
6.330935 4.431654 -14.733813 221 175 124 
6.236331 4.345679 -14.447971 224 181 138 
6.198953 4.300175 -14.296684 225 197 160 
6.194445 4.277778 -14.222222 229 217 197 
6.211439 4.270364 -14.197574 229 235 235 
6.196213 4.240964 -14.099828 230 243 250 
6.223752 4.240964 -14.099828 231 247 254 
-0.891334 1.683631 -5.634113 131 145 147 
-0.880330 1.683631 -5.634113 131 144 147 
-0.869326 1.683631 -5.634113 133 147 150 
-0.858913 1.684790 -5.637990 138 152 155 
-0.847901 1.684790 -5.637990 142 156 159 
-0.638037 1.501840 -5.025767 136 149 157 
-0.628221 1.501840 -5.025767 133 147 155 
-0.618405 1.501840 -5.025767 131 146 153 
-0.608589 1.501840 -5.025767 130 144 152 
-0.598406 1.500920 -5.022686 128 143 151 
-0.588235 1.500000 -5.019608 128 142 151 
-0.577370 1.497248 -5.010397 128 142 150 
-0.567584 1.497248 -5.010397 128 142 151 
-0.556777 1.494506 -5.001221 127 142 150 
-0.530120 1.474699 -4.934940 129 143 147 
-0.517056 1.464991 -4.902453 131 145 149 
-0.507481 1.464991 -4.902453 133 146 152 
-0.497013 1.462366 -4.893668 132 146 153 
-0.487164 1.461493 -4.890746 131 144 152 
-0.477327 1.460621 -4.887828 130 143 153 
-0.467780 1.460621 -4.887828 132 144 155 
-0.211640 3.238095 -10.835979 224 193 162 
-0.190728 3.242384 -10.850331 223 192 161 
-0.169536 3.242384 -10.850331 222 191 158 
-0.148541 3.246684 -10.864721 222 192 158 
6.766798 4.837945 -16.189724 218 173 122 
6.718750 4.781250 -16.000000 218 172 120 
6.684720 4.735010 -15.845262 218 173 118 
6.715667 4.735010 -15.845262 216 174 121 
6.631179 4.653992 -15.574144 215 174 126 
6.464945 4.516605 -15.114391 217 175 123 
6.342342 4.410811 -14.760361 221 175 124 
6.247350 4.325089 -14.473498 222 180 137 
6.198953 4.272251 -14.296684 222 196 158 
6.205217 4.257391 -14.246957 227 217 197 
6.211439 4.242634 -14.197574 228 234 234 
6.206897 4.220690 -14.124138 230 243 250 
6.234483 4.220690 -14.124138 230 245 254 
-0.929461 1.681881 -5.665284 131 145 146 
-0.915862 1.677241 -5.649655 131 145 146 
-0.902338 1.672627 -5.634113 131 145 146 
-0.890722 1.671478 -5.630240 132 146 147 
-0.879725 1.671478 -5.630240 133 145 150 
-0.869326 1.672627 -5.634113 134 147 152 
-0.858913 1.673778 -5.637990 144 159 164 
-0.847901 1.673778 -5.637990 146 163 167 
-0.647853 1.492025 -5.025767 139 150 160 
-0.638037 1.492025 -5.025767 138 149 159 
-0.628221 1.492025 -5.025767 135 147 156 
-0.618405 1.492025 -5.025767 133 145 153 
-0.608589 1.492025 -5.025767 130 143 151 
-0.598406 1.491110 -5.022686 130 143 151 
-0.588235 1.490196 -5.019608 128 143 150 
-0.577370 1.487462 -5.010397 127 142 149 
-0.567584 1.487462 -5.010397 126 142 149 
-0.556777 1.484738 -5.001221 126 142 149 
-0.539759 1.465060 -4.934940 126 143 147 
-0.528211 1.459784 -4.917167 127 144 146 
-0.517056 1.455416 -4.902453 129 146 149 
-0.507481 1.455416 -4.902453 131 147 152 
-0.497013 1.452808 -4.893668 131 146 153 
-0.487164 1.451940 -4.890746 130 144 152 
-0.477327 1.451074 -4.887828 130 143 152 
-0.467780 1.451074 -4.887828 131 144 154 
-0.253968 3.216931 -10.835979 220 189 159 
-0.232804 3.216931 -10.835979 220 189 160 
-0.211640 3.216931 -10.835979 221 190 160 
-0.190476 3.216931 -10.835979 222 191 160 
-0.169536 3.221192 -10.850331 223 190 158 
-0.148541 3.225464 -10.864721 224 190 158 
-0.127490 3.229748 -10.879150 224 191 158 
-0.106242 3.229748 -10.879150 224 191 158 
6.766798 4.806324 -16.189724 218 173 119 
6.718750 4.750000 -16.000000 218 172 117 
6.684720 4.704062 -15.845262 217 173 116 
6.625954 4.641222 -15.633588 216 174 119 
6.581132 4.588679 -15.456604 215 175 123 
6.500927 4.512059 -15.198516 217 174 122 
6.376812 4.405797 -14.840580 220 175 121 
6.269504 4.312057 -14.524822 221 181 133 
6.209790 4.251748 -14.321678 221 197 158 
6.216028 4.236934 -14.271777 227 217 193 
6.222222 4.222222 -14.222222 225 228 229 
6.239168 4.214905 -14.197574 228 238 248 
-0.974108 1.690693 -5.732680 131 145 146 
-0.955556 1.677778 -5.688889 131 145 146 
-0.940526 1.670816 -5.665284 132 146 147 
-0.926897 1.666207 -5.649655 131 145 146 
-0.914601 1.663912 -5.641873 131 145 146 
-0.902338 1.661623 -5.634113 131 145 146 
-0.891334 1.661623 -5.634113 131 145 147 
-0.880330 1.661623 -5.634113 133 146 152 
-0.869924 1.662767 -5.637990 144 158 167 
-0.858913 1.662767 -5.637990 165 182 192 
-0.848485 1.663912 -5.641873 164 183 193 
-0.648250 1.483119 -5.028852 140 152 161 
-0.638429 1.483119 -5.028852 138 150 159 
-0.628606 1.483119 -5.028852 136 146 155 
-0.618405 1.482209 -5.025767 133 143 152 
-0.608589 1.482209 -5.025767 130 143 151 
-0.598406 1.481300 -5.022686 130 143 151 
-0.588235 1.480392 -5.019608 128 143 150 
-0.578431 1.480392 -5.019608 127 142 149 
-0.567584 1.477676 -5.010397 125 142 149 
-0.556777 1.474970 -5.001221 125 142 149 
-0.539759 1.455422 -4.934940 125 143 147 
-0.528211 1.450180 -4.917167 126 144 147 
-0.517056 1.445841 -4.902453 128 146 150 
-0.507481 1.445841 -4.902453 131 147 152 
-0.497013 1.443250 -4.893668 131 146 153 
-0.487164 1.442388 -4.890746 131 144 153 
-0.477327 1.441527 -4.887828 130 143 152 
-0.467780 1.441527 -4.887828 132 144 154 
-0.253968 3.195767 -10.835979 219 188 159 
-0.232804 3.195767 -10.835979 219 188 159 
-0.211640 3.195767 -10.835979 220 189 160 
-0.190728 3.200000 -10.850331 221 190 160 
-0.169536 3.200000 -10.850331 224 190 158 
-0.148541 3.204244 -10.864721 225 190 158 
-0.127490 3.208499 -10.879150 225 190 158 
-0.106242 3.208499 -10.879150 225 190 158 
-0.084993 3.208499 -10.879150 225 190 158 
6.766798 4.774704 -16.189724 217 173 120 
6.731898 4.727984 -16.031311 217 172 119 
6.684720 4.673114 -15.845262 216 172 118 
6.625954 4.610687 -15.633588 216 172 120 
6.581132 4.558491 -15.456604 215 174 123 
6.513011 4.490706 -15.226766 217 174 121 
6.400000 4.392727 -14.894546 220 176 121 
6.291815 4.298933 -14.576512 219 181 130 
6.220665 4.231174 -14.346760 219 195 155 
6.226876 4.216405 -14.296684 225 214 188 
6.222222 4.194445 -14.222222 220 221 220 
6.250000 4.194445 -14.222222 214 220 232 
-0.985304 1.679496 -5.732680 130 144 145 
-0.966667 1.666667 -5.688889 130 144 145 
-0.954230 1.664355 -5.680999 131 145 146 
-0.941176 1.660900 -5.669204 131 145 146 
-0.929461 1.659751 -5.665284 131 145 146 
-0.915862 1.655172 -5.649655 131 145 146 
-0.903581 1.652893 -5.641873 131 145 146 
-0.891948 1.651755 -5.637990 132 146 147 
-0.880936 1.651755 -5.637990 134 149 152 
-0.870523 1.652893 -5.641873 151 168 174 
-0.859504 1.652893 -5.641873 171 190 200 
-0.850829 1.657459 -5.657459 170 190 203 
-0.638429 1.473297 -5.028852 138 151 159 
-0.628606 1.473297 -5.028852 134 146 155 
-0.618785 1.473297 -5.028852 131 143 152 
-0.608589 1.472393 -5.025767 129 142 150 
-0.598773 1.472393 -5.025767 129 143 150 
-0.588235 1.470588 -5.019608 127 142 149 
-0.578431 1.470588 -5.019608 125 141 148 
-0.539759 1.445783 -4.934940 124 142 147 
-0.527894 1.439712 -4.914217 126 143 147 
-0.517056 1.436266 -4.902453 129 144 150 
-0.506874 1.434549 -4.896593 131 146 152 
-0.497013 1.433692 -4.893668 131 145 153 
-0.487164 1.432836 -4.890746 131 144 153 
-0.477612 1.432836 -4.890746 130 143 152 
-0.468060 1.432836 -4.890746 132 144 153 
-0.254305 3.178808 -10.850331 218 187 158 
-0.232804 3.174603 -10.835979 218 187 158 
-0.211640 3.174603 -10.835979 219 188 159 
-0.190728 3.178808 -10.850331 220 189 160 
-0.169761 3.183024 -10.864721 223 189 158 
-0.148541 3.183024 -10.864721 224 189 157 
-0.127490 3.187251 -10.879150 224 189 157 
-0.106242 3.187251 -10.879150 224 189 157 
-0.084656 3.174603 -10.835979 224 189 157 
-0.063492 3.174603 -10.835979 224 189 157 
6.766798 4.743083 -16.189724 216 172 123 
6.731898 4.696673 -16.031311 215 171 122 
6.684720 4.642166 -15.845262 216 170 120 
6.625954 4.580153 -15.633588 215 171 121 
6.593573 4.536862 -15.485823 215 173 124 
6.513011 4.460967 -15.226766 216 173 123 
6.411657 4.371585 -14.921676 218 175 123 
6.314286 4.285714 -14.628572 218 180 131 
6.231579 4.210526 -14.371930 217 191 152 
6.237762 4.195804 -14.321678 221 208 181 
6.254799 4.188482 -14.296684 213 210 207 
6.282722 4.188482 -14.296684 186 189 197 
-0.985304 1.668300 -5.732680 129 143 144 
-0.967338 1.656706 -5.692842 129 143 144 
-0.955556 1.655556 -5.688889 129 143 144 
-0.943135 1.653259 -5.680999 130 144 145 
-0.930748 1.650970 -5.673130 130 144 145 
-0.918396 1.648686 -5.665284 130 144 145 
-0.905452 1.645273 -5.653554 132 146 147 
-0.893793 1.644138 -5.649655 132 147 148 
-0.882759 1.644138 -5.649655 132 149 149 
-0.872928 1.646409 -5.657459 147 166 168 
-0.862474 1.647547 -5.661368 171 190 199 
-0.852595 1.649827 -5.669204 172 193 207 
-0.608963 1.463475 -5.028852 128 142 150 
-0.598773 1.462577 -5.025767 128 143 150 
-0.588957 1.462577 -5.025767 126 141 148 
-0.540084 1.437010 -4.937914 123 141 147 
-0.527894 1.430114 -4.914217 125 142 148 
-0.516746 1.425837 -4.899521 128 144 150 
-0.506571 1.424134 -4.893668 130 146 152 
-0.497013 1.424134 -4.893668 130 145 153 
-0.487164 1.423284 -4.890746 130 144 153 
-0.477612 1.423284 -4.890746 130 144 153 
-0.233113 3.157616 -10.850331 218 187 158 
-0.211921 3.157616 -10.850331 218 187 158 
-0.190728 3.157616 -10.850331 220 188 159 
-0.169761 3.161804 -10.864721 222 188 157 
-0.148541 3.161804 -10.864721 223 188 156 
-0.127321 3.161804 -10.864721 223 188 156 
-0.105960 3.157616 -10.850331 223 188 156 
-0.084544 3.149273 -10.821665 223 188 156 
-0.063325 3.145119 -10.807388 223 188 156 
6.780198 4.720792 -16.221783 217 171 123 
6.731898 4.665362 -16.031311 216 170 122 
6.684720 4.611218 -15.845262 216 170 119 
6.625954 4.549618 -15.633588 215 171 121 
6.593573 4.506616 -15.485823 215 172 124 
6.537313 4.447761 -15.283582 215 172 123 
6.446887 4.366301 -15.003663 216 173 123 
6.348294 4.280072 -14.707361 217 179 132 
6.253521 4.197183 -14.422535 216 189 153 
6.259649 4.182456 -14.371930 218 201 177 
6.265734 4.167832 -14.321678 204 196 191 
-1.002111 1.666432 -5.764954 128 143 143 
-0.985994 1.658263 -5.736695 127 142 144 
-0.968011 1.646732 -5.696801 127 141 144 
-0.955556 1.644444 -5.688889 128 142 144 
-0.944444 1.644444 -5.688889 128 142 144 
-0.932686 1.643303 -5.684941 128 142 145 
-0.920305 1.641026 -5.677062 129 143 145 
-0.907331 1.637621 -5.665284 130 144 146 
-0.896266 1.637621 -5.665284 131 145 147 
-0.885201 1.637621 -5.665284 131 146 149 
-0.874740 1.638754 -5.669204 143 160 166 
-0.863668 1.638754 -5.669204 163 180 193 
-0.853186 1.639889 -5.673130 165 183 202 
-1.093750 2.312500 -8.000000 118 137 145 
-1.078125 2.312500 -8.000000 126 144 151 
-1.062500 2.312500 -8.000000 133 149 157 
-0.540084 1.427366 -4.937914 122 141 147 
-0.527894 1.420516 -4.914217 124 143 149 
-0.516746 1.416268 -4.899521 126 145 151 
-0.506269 1.413731 -4.890746 129 147 154 
-0.496716 1.413731 -4.890746 129 146 154 
-0.487164 1.413731 -4.890746 128 144 152 
-0.477897 1.414576 -4.893668 127 144 152 
-0.233422 3.140584 -10.864721 217 186 157 
-0.211921 3.136424 -10.850331 218 187 158 
-0.190476 3.132275 -10.835979 219 188 158 
-0.169536 3.136424 -10.850331 222 188 157 
-0.148344 3.136424 -10.850331 223 188 156 
-0.127152 3.136424 -10.850331 223 188 156 
-0.105680 3.128137 -10.821665 223 188 156 
-0.084433 3.124011 -10.807388 223 188 156 
-0.063075 3.111695 -10.764783 223 188 156 
-0.042050 3.111695 -10.764783 222 189 156 
6.807157 4.707754 -16.286282 218 171 121 
6.745098 4.643137 -16.062746 217 170 120 
6.684720 4.580271 -15.845262 217 171 117 
6.625954 4.519084 -15.633588 216 172 119 
6.593573 4.476370 -15.485823 216 172 124 
6.537313 4.417911 -15.283582 216 172 124 
6.470588 4.352941 -15.058824 215 173 124 
6.371171 4.266667 -14.760361 216 179 134 
6.297873 4.198582 -14.524822 218 189 156 
6.281690 4.169014 -14.422535 218 196 176 
6.309859 4.169014 -14.422535 199 186 178 
-1.001406 1.654008 -5.760900 126 141 143 
-0.985994 1.647059 -5.736695 126 141 144 
-0.968685 1.636743 -5.700766 127 141 144 
-0.956220 1.634468 -5.692842 127 141 144 
-0.944444 1.633333 -5.688889 127 141 144 
-0.933333 1.633333 -5.688889 127 141 144 
-0.921582 1.632200 -5.684941 128 142 145 
-0.909217 1.629938 -5.677062 129 143 146 
-0.897507 1.628809 -5.673130 129 143 146 
-0.886427 1.628809 -5.673130 129 144 148 
-0.875346 1.628809 -5.673130 136 151 158 
-0.864865 1.629938 -5.677062 149 164 177 
-0.853777 1.629938 -5.677062 155 171 189 
-1.093750 2.296875 -8.000000 119 136 145 
-1.078125 2.296875 -8.000000 127 143 152 
-1.062500 2.296875 -8.000000 134 148 157 
-1.046875 2.296875 -8.000000 141 154 162 
-0.527894 1.410918 -4.914217 122 142 149 
-0.515821 1.404179 -4.890746 126 145 152 
-0.505967 1.403341 -4.887828 128 148 155 
-0.496716 1.404179 -4.890746 128 147 154 
-0.487164 1.404179 -4.890746 126 145 152 
-0.233422 3.119363 -10.864721 218 186 155 
-0.211640 3.111111 -10.835979 218 187 156 
-0.190225 3.107001 -10.821665 219 187 156 
-0.169536 3.115232 -10.850331 221 188 156 
-0.148344 3.115232 -10.850331 223 188 155 
-0.126816 3.107001 -10.821665 223 188 155 
-0.105541 3.102902 -10.807388 223 188 155 
-0.084100 3.090670 -10.764783 223 188 155 
-0.062827 3.078534 -10.722513 223 188 155 
-0.041721 3.066493 -10.680573 222 189 155 
-0.020915 3.074510 -10.708497 221 189 155 
6.834332 4.694611 -16.351297 219 172 120 
6.758350 4.620825 -16.094303 218 171 118 
6.697674 4.558139 -15.875969 217 171 115 
6.625954 4.488550 -15.633588 216 171 118 
6.593573 4.446125 -15.485823 216 172 124 
6.549533 4.396262 -15.312150 216 172 125 
6.470588 4.323529 -15.058824 215 174 126 
6.394213 4.253165 -14.813744 215 178 134 
6.320285 4.185053 -14.576512 217 187 154 
6.348754 4.185053 -14.576512 216 190 170 
-1.000000 1.640449 -5.752809 125 140 143 
-0.985304 1.634710 -5.732680 125 140 143 
-0.968685 1.625609 -5.700766 125 140 143 
-0.956885 1.624478 -5.696801 125 140 143 
-0.945101 1.623350 -5.692842 125 140 143 
-0.933982 1.623350 -5.692842 126 141 144 
-0.922222 1.622222 -5.688889 127 141 144 
-0.910479 1.621096 -5.684941 127 142 145 
-0.898752 1.619972 -5.680999 128 142 145 
-0.887656 1.619972 -5.680999 125 140 143 
-0.876560 1.619972 -5.680999 132 147 151 
-0.865465 1.619972 -5.680999 144 159 166 
-1.093750 2.281250 -8.000000 119 136 146 
-1.078125 2.281250 -8.000000 128 144 153 
-1.062500 2.281250 -8.000000 135 149 158 
-1.046875 2.281250 -8.000000 141 155 163 
-1.031250 2.281250 -8.000000 144 157 163 
-1.016618 2.283480 -8.007820 140 152 158 
-1.000978 2.283480 -8.007820 133 147 154 
-0.984375 2.281250 -8.000000 128 143 150 
-0.968750 2.281250 -8.000000 125 141 148 
-0.952195 2.279024 -7.992195 123 140 147 
-0.936585 2.279024 -7.992195 123 140 147 
-0.920976 2.279024 -7.992195 122 141 147 
-0.905366 2.279024 -7.992195 121 141 146 
-0.890625 2.281250 -8.000000 120 140 145 
-0.527894 1.401320 -4.914217 122 141 148 
-0.515513 1.393795 -4.887828 125 145 152 
-0.505364 1.392133 -4.882002 128 147 154 
-0.496124 1.392964 -4.884913 128 147 154 
-0.487164 1.394627 -4.890746 126 145 152 
-0.211361 3.085865 -10.821665 218 188 155 
-0.190225 3.085865 -10.821665 218 188 155 
-0.169089 3.085865 -10.821665 221 188 153 
-0.147757 3.081794 -10.807388 222 188 152 
-0.125819 3.061599 -10.736567 222 188 152 
-0.104712 3.057592 -10.722513 222 188 152 
-0.083770 3.057592 -10.722513 222 188 152 
-0.062581 3.045632 -10.680573 222 188 152 
-0.041667 3.041667 -10.666667 221 188 152 
-0.020833 3.041667 -10.666667 220 188 152 
6.848000 4.672000 -16.384001 218 172 119 
6.758350 4.589391 -16.094303 217 172 118 
6.697674 4.527132 -15.875969 216 171 116 
6.625954 4.458015 -15.633588 216 170 120 
6.606061 4.424242 -15.515152 216 171 126 
6.561798 4.374532 -15.340824 215 172 126 
6.482504 4.302026 -15.086556 215 174 126 
6.417423 4.239564 -14.867514 214 178 132 
6.423146 4.224231 -14.813744 215 184 148 
-0.999298 1.628070 -5.748772 123 138 142 
-0.985304 1.623513 -5.732680 124 139 142 
-0.969359 1.615599 -5.704735 124 139 142 
-0.957550 1.614475 -5.700766 124 139 142 
-0.945758 1.613352 -5.696801 124 139 142 
-0.933982 1.612231 -5.692842 125 140 143 
-0.922863 1.612231 -5.692842 126 141 144 
-0.911111 1.611111 -5.688889 126 141 144 
-0.899375 1.609993 -5.684941 127 142 145 
-0.888272 1.609993 -5.684941 127 143 148 
-0.877169 1.609993 -5.684941 139 156 163 
-1.093750 2.265625 -8.000000 119 136 146 
-1.078125 2.265625 -8.000000 128 145 153 
-1.062500 2.265625 -8.000000 135 150 158 
-1.046875 2.265625 -8.000000 141 156 162 
-1.031250 2.265625 -8.000000 143 157 163 
-1.015625 2.265625 -8.000000 138 152 157 
-1.000000 2.265625 -8.000000 132 146 153 
-0.984375 2.265625 -8.000000 127 143 150 
-0.968750 2.265625 -8.000000 124 140 147 
-0.952195 2.263415 -7.992195 122 139 146 
-0.935673 2.261209 -7.984406 122 140 146 
-0.920078 2.261209 -7.984406 122 141 147 
-0.904483 2.261209 -7.984406 120 140 146 
-0.890625 2.265625 -8.000000 119 140 145 
-0.514899 1.382598 -4.882002 125 144 151 
-0.505063 1.381775 -4.879095 128 146 153 
-0.495533 1.381775 -4.879095 128 146 153 
-0.211640 3.068783 -10.835979 218 188 154 
-0.190225 3.064729 -10.821665 218 188 154 
-0.167759 3.040629 -10.736567 220 187 152 
-0.146405 3.032680 -10.708497 221 187 150 
-0.125490 3.032680 -10.708497 221 187 150 
-0.104575 3.032680 -10.708497 221 187 150 
-0.083551 3.028721 -10.694517 221 187 150 
-0.062500 3.020833 -10.666667 221 187 150 
-0.041667 3.020833 -10.666667 220 188 150 
-0.020833 3.020833 -10.666667 220 188 150 
6.848000 4.640000 -16.384001 216 173 120 
6.758350 4.557957 -16.094303 215 172 119 
6.697674 4.496124 -15.875969 215 170 119 
6.625954 4.427481 -15.633588 215 169 123 
6.606061 4.393939 -15.515152 216 169 127 
6.561798 4.344569 -15.340824 215 171 127 
6.494465 4.280443 -15.114391 214 175 125 
6.429091 4.218182 -14.894546 214 179 130 
6.458182 4.218182 -14.894546 216 184 144 
-2.072015 1.455464 -5.174984 96 108 114 
-2.061908 1.455464 -5.174984 96 106 115 
-0.999298 1.616842 -5.748772 121 137 143 
-0.985304 1.612316 -5.732680 123 138 143 
-0.970711 1.606695 -5.712692 124 138 143 
-0.958217 1.604457 -5.704735 124 138 143 
-0.946416 1.603340 -5.700766 123 138 142 
-0.935282 1.603340 -5.700766 123 140 143 
-0.924148 1.603340 -5.700766 123 141 145 
-1.109375 2.250000 -8.000000 115 132 142 
-1.093750 2.250000 -8.000000 119 136 146 
-1.078125 2.250000 -8.000000 127 143 152 
-1.062500 2.250000 -8.000000 134 149 157 
-1.046875 2.250000 -8.000000 140 155 162 
-1.031250 2.250000 -8.000000 143 156 163 
-1.016618 2.252199 -8.007820 137 151 157 
-1.000978 2.252199 -8.007820 132 146 153 
-0.984375 2.250000 -8.000000 129 144 151 
-0.968750 2.250000 -8.000000 126 141 148 
-0.952195 2.247805 -7.992195 124 140 147 
-0.936585 2.247805 -7.992195 124 140 147 
-0.920976 2.247805 -7.992195 122 140 146 
-0.905366 2.247805 -7.992195 121 140 146 
-0.890625 2.250000 -8.000000 120 140 145 
-0.514592 1.372245 -4.879095 124 143 148 
-0.504762 1.371429 -4.876191 126 144 149 
-0.495238 1.371429 -4.876191 127 144 150 
-0.211921 3.051656 -10.850331 221 185 153 
-0.188976 3.023622 -10.750656 221 185 153 
-0.167539 3.015707 -10.722513 221 186 151 
-0.146405 3.011765 -10.708497 220 186 149 
-0.125490 3.011765 -10.708497 220 186 149 
-0.104575 3.011765 -10.708497 220 186 149 
-0.083551 3.007833 -10.694517 220 186 149 
-0.062500 3.000000 -10.666667 220 186 149 
-0.041667 3.000000 -10.666667 220 187 149 
-0.020833 3.000000 -10.666667 220 187 150 
0.000000 3.000000 -10.666667 220 186 152 
6.861723 4.617235 -16.416834 215 172 119 
6.771654 4.535433 -16.125984 215 171 119 
6.697674 4.465117 -15.875969 214 170 120 
6.625954 4.396946 -15.633588 215 169 122 
6.606061 4.363636 -15.515152 216 170 124 
6.561798 4.314607 -15.340824 216 171 125 
6.494465 4.250923 -15.114391 214 173 127 
6.523985 4.250923 -15.114391 212 177 133 
-2.101010 1.444444 -5.171717 104 115 123 
-2.090909 1.444444 -5.171717 97 107 116 
-2.080808 1.444444 -5.171717 93 103 112 
-2.070707 1.444444 -5.171717 93 103 113 
-2.060606 1.444444 -5.171717 93 103 113 
-2.049211 1.443533 -5.168454 93 103 113 
-1.000000 1.606742 -5.752809 119 136 143 
-0.986685 1.603364 -5.740715 121 137 142 
-0.974108 1.601120 -5.732680 123 138 143 
-0.960223 1.596650 -5.716678 122 138 142 
-1.109375 2.234375 -8.000000 114 131 142 
-1.093750 2.234375 -8.000000 119 136 146 
-1.078125 2.234375 -8.000000 126 142 151 
-1.062500 2.234375 -8.000000 134 148 157 
-1.046875 2.234375 -8.000000 140 154 162 
-1.032258 2.236559 -8.007820 143 156 162 
-1.016618 2.236559 -8.007820 138 151 157 
-1.000978 2.236559 -8.007820 132 146 153 
-0.984375 2.234375 -8.000000 129 144 151 
-0.968750 2.234375 -8.000000 126 141 148 
-0.953125 2.234375 -8.000000 125 140 147 
-0.936585 2.232195 -7.992195 124 139 146 
-0.920976 2.232195 -7.992195 122 139 146 
-0.905366 2.232195 -7.992195 121 139 146 
-0.890625 2.234375 -8.000000 120 139 145 
-0.505063 1.362716 -4.879095 126 145 149 
-0.211921 3.030463 -10.850331 223 184 152 
-0.189723 3.014493 -10.793149 223 184 152 
-0.167539 2.994764 -10.722513 221 185 150 
-0.146405 2.990850 -10.708497 220 186 149 
-0.125490 2.990850 -10.708497 220 186 149 
-0.104575 2.990850 -10.708497 220 186 149 
-0.083551 2.986945 -10.694517 220 186 149 
-0.062500 2.979167 -10.666667 220 186 149 
-0.041667 2.979167 -10.666667 220 186 149 
-0.020833 2.979167 -10.666667 220 186 149 
0.000000 2.979167 -10.666667 221 185 151 
6.861723 4.585170 -16.416834 217 171 119 
6.771654 4.503937 -16.125984 217 171 119 
6.710680 4.442719 -15.906796 216 170 120 
6.638623 4.374761 -15.663480 215 169 119 
6.606061 4.333333 -15.515152 215 169 119 
6.561798 4.284644 -15.340824 216 171 122 
6.494465 4.221402 -15.114391 214 172 126 
6.523985 4.221402 -15.114391 212 175 134 
-2.101010 1.434343 -5.171717 97 108 118 
-2.090909 1.434343 -5.171717 92 102 115 
-2.080808 1.434343 -5.171717 91 101 113 
-2.070707 1.434343 -5.171717 92 102 113 
-2.059306 1.433439 -5.168454 92 102 113 
-2.044053 1.429830 -5.155444 92 102 112 
-2.033984 1.429830 -5.155444 92 102 111 
-1.000000 1.595506 -5.752809 119 136 142 
-0.986685 1.592151 -5.740715 121 137 142 
-0.975473 1.592151 -5.740715 122 137 141 
-1.109375 2.218750 -8.000000 113 130 141 
-1.093750 2.218750 -8.000000 119 136 146 
-1.078125 2.218750 -8.000000 127 143 152 
-1.062500 2.218750 -8.000000 134 149 157 
-1.046875 2.218750 -8.000000 140 155 162 
-1.032258 2.220919 -8.007820 143 156 162 
-1.016618 2.220919 -8.007820 137 151 157 
-1.000978 2.220919 -8.007820 131 146 152 
-0.985337 2.220919 -8.007820 128 143 150 
-0.968750 2.218750 -8.000000 125 140 147 
-0.953125 2.218750 -8.000000 124 139 146 
-0.936585 2.216585 -7.992195 123 139 146 
-0.920976 2.216585 -7.992195 121 138 145 
-0.905366 2.216585 -7.992195 121 138 145 
-0.888889 2.214425 -7.984406 120 139 145 
-0.873294 2.214425 -7.984406 118 139 143 
-0.212483 3.017264 -10.879150 223 184 150 
-0.190225 3.001321 -10.821665 223 184 150 
-0.168643 2.993412 -10.793149 221 185 149 
-0.146597 2.973822 -10.722513 220 186 149 
-0.125490 2.969935 -10.708497 220 186 149 
-0.104575 2.969935 -10.708497 220 186 149 
-0.083551 2.966058 -10.694517 220 186 149 
-0.062581 2.962190 -10.680573 220 186 149 
-0.041667 2.958333 -10.666667 220 186 149 
-0.020833 2.958333 -10.666667 220 186 149 
0.000000 2.958333 -10.666667 222 185 150 
6.861723 4.553106 -16.416834 218 170 118 
6.771654 4.472441 -16.125984 218 170 118 
6.710680 4.411651 -15.906796 217 170 118 
6.638623 4.344168 -15.663480 215 169 116 
6.606061 4.303030 -15.515152 215 168 116 
6.561798 4.254682 -15.340824 215 169 118 
6.494465 4.191882 -15.114391 215 171 123 
6.523985 4.191882 -15.114391 213 175 131 
-2.101010 1.424242 -5.171717 92 102 114 
-2.090909 1.424242 -5.171717 91 100 115 
-2.080808 1.424242 -5.171717 90 99 114 
-2.070707 1.424242 -5.171717 90 99 113 
-2.060606 1.424242 -5.171717 90 100 112 
-2.045340 1.420655 -5.158690 90 100 111 
-2.035264 1.420655 -5.158690 91 101 111 
-1.000000 1.584270 -5.752809 120 137 144 
-0.987377 1.582048 -5.744740 122 137 142 
-0.975473 1.580939 -5.740715 123 138 141 
-1.109375 2.203125 -8.000000 111 129 141 
-1.093750 2.203125 -8.000000 118 135 145 
-1.078125 2.203125 -8.000000 127 143 151 
-1.062500 2.203125 -8.000000 134 149 156 
-1.046875 2.203125 -8.000000 140 154 161 
-1.032258 2.205279 -8.007820 143 156 162 
-1.017613 2.207436 -8.015656 137 150 157 
-1.001957 2.207436 -8.015656 131 145 151 
-0.985337 2.205279 -8.007820 127 142 148 
-0.968750 2.203125 -8.000000 125 140 147 
-0.953125 2.203125 -8.000000 124 139 146 
-0.936585 2.200976 -7.992195 123 138 145 
-0.920976 2.200976 -7.992195 121 138 145 
-0.905366 2.200976 -7.992195 120 138 145 
-0.888889 2.198830 -7.984406 119 138 144 
-0.873294 2.198830 -7.984406 119 140 144 
-0.212766 3.000000 -10.893617 223 185 149 
-0.190981 2.992043 -10.864721 223 185 149 
-0.169089 2.980185 -10.821665 221 186 148 
-0.147757 2.976253 -10.807388 221 186 148 
-0.125654 2.952880 -10.722513 221 186 148 
-0.104575 2.949020 -10.708497 221 186 148 
-0.083551 2.945170 -10.694517 221 186 148 
-0.062581 2.941330 -10.680573 221 186 148 
-0.041721 2.941330 -10.680573 221 186 148 
-0.020833 2.937500 -10.666667 221 186 148 
0.000000 2.937500 -10.666667 223 185 148 
6.785010 4.449704 -16.157791 217 170 117 
6.710680 4.380582 -15.906796 217 170 116 
6.638623 4.313576 -15.663480 215 168 114 
6.606061 4.272727 -15.515152 214 167 114 
6.561798 4.224719 -15.340824 215 168 116 
6.591760 4.224719 -15.340824 215 171 122 
-2.101010 1.414141 -5.171717 91 101 112 
-2.090909 1.414141 -5.171717 90 99 113 
-2.082123 1.415035 -5.174984 89 98 113 
-2.072015 1.415035 -5.174984 88 97 112 
-2.060606 1.414141 -5.171717 89 98 113 
-2.046629 1.411468 -5.161941 90 100 114 
-2.036547 1.411468 -5.161941 92 101 116 
-1.000000 1.573034 -5.752809 120 137 144 
-0.988070 1.571930 -5.748772 121 137 141 
-0.975473 1.569727 -5.740715 122 137 140 
-0.964261 1.569727 -5.740715 123 137 140 
-1.109375 2.187500 -8.000000 113 130 144 
-1.093750 2.187500 -8.000000 119 136 146 
-1.078125 2.187500 -8.000000 127 143 151 
-1.062500 2.187500 -8.000000 135 150 156 
-1.047898 2.189638 -8.007820 141 155 160 
-1.033268 2.191781 -8.015656 142 155 161 
-1.017613 2.191781 -8.015656 137 150 156 
-1.001957 2.191781 -8.015656 131 143 150 
-0.985337 2.189638 -8.007820 127 140 146 
-0.969697 2.189638 -8.007820 125 139 145 
-0.953125 2.187500 -8.000000 123 138 145 
-0.937500 2.187500 -8.000000 122 137 144 
-0.921875 2.187500 -8.000000 120 137 144 
-0.906250 2.187500 -8.000000 119 137 145 
-0.888889 2.183236 -7.984406 118 137 144 
-0.873294 2.183236 -7.984406 120 139 146 
-0.191489 2.978723 -10.893617 223 185 147 
-0.169761 2.970822 -10.864721 222 185 147 
-0.148344 2.966887 -10.850331 221 186 148 
-0.126649 2.955145 -10.807388 221 186 148 
-0.104849 2.935780 -10.736567 221 186 148 
-0.083660 2.928105 -10.708497 221 186 148 
-0.062663 2.924282 -10.694517 222 187 149 
-0.041830 2.928105 -10.708497 222 187 149 
6.723735 4.357976 -15.937743 217 170 117 
6.651341 4.291188 -15.693486 215 168 116 
6.606061 4.242424 -15.515152 216 167 116 
6.561798 4.194757 -15.340824 215 167 118 
6.591760 4.194757 -15.340824 215 169 122 
-2.102337 1.404927 -5.174984 91 101 111 
-2.092230 1.404927 -5.174984 90 99 112 
-2.082123 1.404927 -5.174984 90 98 112 
-2.072015 1.404927 -5.174984 89 97 113 
-2.060606 1.404040 -5.171717 90 97 115 
-2.049211 1.403155 -5.168454 90 97 116 
-2.039117 1.403155 -5.168454 90 97 117 
-1.012658 1.563994 -5.760900 119 137 143 
-1.000000 1.561798 -5.752809 118 137 143 
-0.988764 1.561798 -5.752809 119 136 141 
-0.975473 1.558514 -5.740715 121 136 140 
-0.964261 1.558514 -5.740715 122 137 140 
-1.109375 2.171875 -8.000000 113 130 144 
-1.093750 2.171875 -8.000000 118 136 146 
-1.078125 2.171875 -8.000000 127 143 150 
-1.063539 2.173998 -8.007820 135 150 155 
-1.047898 2.173998 -8.007820 140 154 158 
-1.033268 2.176125 -8.015656 141 154 160 
-1.017613 2.176125 -8.015656 138 149 156 
-1.002938 2.178257 -8.023506 131 143 150 
-0.986301 2.176125 -8.015656 126 139 145 
-0.969697 2.173998 -8.007820 124 138 144 
-0.953125 2.171875 -8.000000 123 138 144 
-0.937500 2.171875 -8.000000 121 137 144 
-0.921875 2.171875 -8.000000 120 137 145 
-0.906250 2.171875 -8.000000 119 137 145 
-0.889756 2.169756 -7.992195 118 137 144 
-0.874146 2.169756 -7.992195 119 138 146 
-0.170213 2.957447 -10.893617 222 185 147 
-0.148738 2.953519 -10.879150 222 185 148 
-0.126984 2.941799 -10.835979 222 185 148 
-0.105820 2.941799 -10.835979 222 185 148 
-0.084656 2.941799 -10.835979 223 186 149 
6.754864 4.326848 -15.937743 216 168 118 
6.681993 4.260536 -15.693486 216 167 118 
6.648956 4.220114 -15.544592 216 167 120 
-2.103666 1.395702 -5.178256 90 99 112 
-2.092230 1.394820 -5.174984 91 98 113 
-2.083439 1.395702 -5.178256 91 98 114 
-2.073325 1.395702 -5.178256 90 97 114 
-2.061908 1.394820 -5.174984 89 96 115 
-2.050505 1.393939 -5.171717 89 96 115 
-2.040404 1.393939 -5.171717 89 95 116 
-1.011947 1.551651 -5.756852 117 136 142 
-1.000000 1.550562 -5.752809 118 137 143 
-0.988764 1.550562 -5.752809 117 136 141 
-0.975473 1.547302 -5.740715 118 136 140 
-0.964261 1.547302 -5.740715 120 137 140 
-1.109375 2.156250 -8.000000 111 129 144 
-1.093750 2.156250 -8.000000 117 134 145 
-1.079179 2.158358 -8.007820 125 142 149 
-1.063539 2.158358 -8.007820 133 148 152 
-1.048924 2.160470 -8.015656 139 153 156 
-1.033268 2.160470 -8.015656 141 153 159 
-1.018609 2.162586 -8.023506 138 149 156 
-1.002938 2.162586 -8.023506 131 143 149 
-0.987267 2.162586 -8.023506 126 139 144 
-0.970646 2.160470 -8.015656 124 137 143 
-0.953125 2.156250 -8.000000 123 137 144 
-0.937500 2.156250 -8.000000 121 137 144 
-0.921875 2.156250 -8.000000 120 137 145 
-0.906250 2.156250 -8.000000 119 138 145 
-0.890625 2.156250 -8.000000 118 137 145 
-0.875000 2.156250 -8.000000 118 137 145 
-0.148936 2.936170 -10.893617 223 185 148 
-0.127490 2.932271 -10.879150 223 185 148 
-0.106242 2.932271 -10.879150 223 185 148 
6.461538 7.076923 -26.256411 136 137 168 
-2.104997 1.386464 -5.181530 91 99 113 
-2.093552 1.385588 -5.178256 90 98 115 
-2.084756 1.386464 -5.181530 90 97 115 
-2.074636 1.386464 -5.181530 89 96 115 
-2.063211 1.385588 -5.178256 88 95 114 
-2.051800 1.384713 -5.174984 89 96 115 
-2.041693 1.384713 -5.174984 90 97 116 
-1.022472 1.539326 -5.752809 114 131 138 
-1.011236 1.539326 -5.752809 116 134 141 
-1.000000 1.539326 -5.752809 117 136 142 
-0.988764 1.539326 -5.752809 115 136 141 
-0.977528 1.539326 -5.752809 115 137 140 
-1.094819 2.142718 -8.007820 115 133 144 
-1.079179 2.142718 -8.007820 124 141 147 
-1.064579 2.144814 -8.015656 132 147 151 
-1.048924 2.144814 -8.015656 138 152 155 
-1.034280 2.146915 -8.023506 140 153 158 
-1.018609 2.146915 -8.023506 138 148 156 
-1.002938 2.146915 -8.023506 130 143 148 
-0.987267 2.146915 -8.023506 125 139 144 
-0.970646 2.144814 -8.015656 124 137 143 
-0.954057 2.142718 -8.007820 122 136 143 
-0.937500 2.140625 -8.000000 121 136 144 
-0.921875 2.140625 -8.000000 120 137 145 
-0.906250 2.140625 -8.000000 119 138 145 
-0.890625 2.140625 -8.000000 117 137 145 
-0.875000 2.140625 -8.000000 118 137 144 
-0.127660 2.914894 -10.893617 223 185 148 
-0.106383 2.914894 -10.893617 223 185 148 
6.410256 7.025641 -26.256411 135 136 167 
6.260870 6.807454 -25.440994 135 136 167 
6.310559 6.807454 -25.440994 135 135 167 
-2.106329 1.377215 -5.184810 90 98 110 
-2.094877 1.376344 -5.181530 89 97 110 
-2.086076 1.377215 -5.184810 89 96 110 
-2.075949 1.377215 -5.184810 89 96 112 
-2.063211 1.375474 -5.178256 89 96 113 
-2.053097 1.375474 -5.178256 90 97 115 
-1.033708 1.528090 -5.752809 114 131 138 
-1.022472 1.528090 -5.752809 114 132 139 
-1.011236 1.528090 -5.752809 115 134 141 
-1.000000 1.528090 -5.752809 115 134 142 
-0.988764 1.528090 -5.752809 113 134 141 
-0.977528 1.528090 -5.752809 113 134 140 
-1.094819 2.127077 -8.007820 114 133 143 
-1.079179 2.127077 -8.007820 124 141 148 
-1.064579 2.129158 -8.015656 133 147 152 
-1.048924 2.129158 -8.015656 139 151 157 
-1.034280 2.131244 -8.023506 141 151 159 
-1.018609 2.131244 -8.023506 138 147 157 
-1.002938 2.131244 -8.023506 130 143 150 
-0.987267 2.131244 -8.023506 124 138 145 
-0.970646 2.129158 -8.015656 123 137 144 
-0.954057 2.127077 -8.007820 120 136 143 
-0.937500 2.125000 -8.000000 119 136 143 
-0.921875 2.125000 -8.000000 119 137 144 
-0.906250 2.125000 -8.000000 118 137 144 
-0.890625 2.125000 -8.000000 117 137 143 
-0.875000 2.125000 -8.000000 118 138 144 
6.410256 6.974359 -26.256411 134 134 167 
6.260870 6.757764 -25.440994 133 134 167 
6.310559 6.757764 -25.440994 133 133 166 
-2.106329 1.367089 -5.184810 89 97 109 
-2.096203 1.367089 -5.184810 88 96 108 
-2.086076 1.367089 -5.184810 88 96 109 
-2.075949 1.367089 -5.184810 88 95 110 
-2.064516 1.366224 -5.181530 89 96 113 
-2.054396 1.366224 -5.181530 91 98 115 
-1.032982 1.515790 -5.748772 114 131 138 
-1.021754 1.515790 -5.748772 115 132 140 
-1.011236 1.516854 -5.752809 115 134 141 
-1.000000 1.516854 -5.752809 115 134 142 
-0.988764 1.516854 -5.752809 113 133 141 
-0.977528 1.516854 -5.752809 113 133 140 
-0.965614 1.515790 -5.748772 113 133 140 
-1.095890 2.113503 -8.015656 115 134 145 
-1.080235 2.113503 -8.015656 125 142 149 
-1.064579 2.113503 -8.015656 134 148 154 
-1.048924 2.113503 -8.015656 140 151 157 
-1.034280 2.115573 -8.023506 142 151 159 
-1.018609 2.115573 -8.023506 138 147 157 
-1.002938 2.115573 -8.023506 129 142 150 
-0.987267 2.115573 -8.023506 122 137 144 
-0.970646 2.113503 -8.015656 122 137 144 
-0.954057 2.111437 -8.007820 119 135 142 
-0.937500 2.109375 -8.000000 118 136 142 
-0.921875 2.109375 -8.000000 118 137 143 
-0.906250 2.109375 -8.000000 117 137 143 
-0.889756 2.107317 -7.992195 116 137 142 
-0.874146 2.107317 -7.992195 118 138 144 
2.648427 2.954856 -11.206567 136 136 170 
2.652174 2.934783 -11.130435 136 136 170 
2.673913 2.934783 -11.130435 135 135 169 
6.379421 6.945338 -26.340836 135 135 169 
6.410256 6.923077 -26.256411 134 134 168 
6.260870 6.708075 -25.440994 133 133 167 
6.138973 6.525680 -24.749245 133 133 167 
6.187311 6.525680 -24.749245 134 135 167 
-2.182295 1.405902 -5.371803 89 97 110 
-2.097530 1.357821 -5.188094 88 96 109 
-2.087397 1.357821 -5.188094 88 95 110 
-2.077264 1.357821 -5.188094 88 95 111 
-2.065823 1.356962 -5.184810 89 96 114 
-2.054396 1.356104 -5.181530 91 98 116 
-1.033708 1.505618 -5.752809 115 132 139 
-1.022472 1.505618 -5.752809 115 132 140 
-1.011947 1.506676 -5.756852 115 134 141 
-1.000703 1.506676 -5.756852 115 134 141 
-0.988764 1.505618 -5.752809 114 133 140 
-0.976842 1.504561 -5.748772 113 133 140 
-0.965614 1.504561 -5.748772 114 133 140 
-0.954386 1.504561 -5.748772 115 133 141 
-1.080235 2.097847 -8.015656 126 142 151 
-1.064579 2.097847 -8.015656 134 148 154 
-1.048924 2.097847 -8.015656 139 151 157 
-1.034280 2.099902 -8.023506 141 152 158 
-1.018609 2.099902 -8.023506 138 147 155 
-1.002938 2.099902 -8.023506 127 141 148 
-0.987267 2.099902 -8.023506 119 136 142 
-0.970646 2.097847 -8.015656 119 136 142 
-0.953125 2.093750 -8.000000 117 135 141 
-0.937500 2.093750 -8.000000 117 134 141 
-0.921875 2.093750 -8.000000 116 135 141 
-0.906250 2.093750 -8.000000 116 136 142 
-0.889756 2.091707 -7.992195 116 137 142 
-0.874146 2.091707 -7.992195 118 137 143 
2.648427 2.932969 -11.206567 136 136 170 
2.652174 2.913043 -11.130435 136 136 170 
2.673913 2.913043 -11.130435 135 135 169 
6.338658 6.849840 -26.172523 135 135 169 
6.389776 6.849840 -26.172523 135 135 169 
6.260870 6.658385 -25.440994 134 134 168 
6.120482 6.457831 -24.674698 134 134 167 
6.168674 6.457831 -24.674698 134 135 167 
-2.182295 1.395410 -5.371803 89 97 110 
-2.154847 1.384515 -5.329864 88 96 109 
-2.088720 1.348542 -5.191381 88 96 110 
-2.078580 1.348542 -5.191381 88 95 111 
-2.065823 1.346835 -5.184810 89 96 113 
-2.055696 1.346835 -5.184810 90 97 115 
-2.045570 1.346835 -5.184810 91 98 115 
-1.178339 1.536462 -5.914802 120 135 142 
-1.089362 1.509220 -5.809929 119 137 142 
-1.078014 1.509220 -5.809929 118 136 140 
-1.065156 1.507082 -5.801700 117 135 139 
-1.033708 1.494382 -5.752809 116 132 139 
-1.022472 1.494382 -5.752809 116 132 140 
-1.012658 1.496484 -5.760900 115 134 141 
-1.001406 1.496484 -5.760900 115 134 141 
-0.989459 1.495432 -5.756852 114 134 141 
-0.976842 1.493333 -5.748772 114 133 140 
-0.965614 1.493333 -5.748772 114 133 140 
-0.954386 1.493333 -5.748772 115 133 141 
-0.943158 1.493333 -5.748772 117 134 142 
-1.081293 2.084231 -8.023506 125 141 151 
-1.064579 2.082192 -8.015656 134 148 155 
-1.049951 2.084231 -8.023506 140 152 157 
-1.034280 2.084231 -8.023506 142 152 157 
-1.018609 2.084231 -8.023506 138 148 154 
-1.002938 2.084231 -8.023506 125 140 145 
-0.987267 2.084231 -8.023506 117 135 139 
-0.970646 2.082192 -8.015656 118 136 140 
-0.953125 2.078125 -8.000000 117 134 140 
-0.937500 2.078125 -8.000000 116 133 140 
-0.921875 2.078125 -8.000000 115 134 140 
-0.906250 2.078125 -8.000000 116 136 141 
-0.889756 2.076097 -7.992195 116 137 142 
-0.874146 2.076097 -7.992195 116 137 142 
2.648276 2.935172 -11.299311 136 137 169 
2.648427 2.911081 -11.206567 136 136 170 
2.652174 2.891304 -11.130435 136 136 170 
2.659459 2.875676 -11.070271 135 136 169 
2.681081 2.875676 -11.070271 136 136 169 
6.211180 6.608696 -25.440994 135 135 169 
6.260870 6.608696 -25.440994 135 135 169 
6.120482 6.409638 -24.674698 134 134 168 
6.168674 6.409638 -24.674698 134 136 167 
-2.179437 1.383104 -5.364768 89 97 110 
-2.157655 1.375896 -5.336808 89 97 110 
-2.144437 1.374105 -5.329864 89 97 110 
-2.134027 1.374105 -5.329864 89 96 111 
-2.068441 1.338403 -5.191381 89 97 112 
-2.055696 1.336709 -5.184810 90 97 113 
-2.045570 1.336709 -5.184810 90 97 113 
-1.195936 1.532656 -5.944848 119 134 141 
-1.166548 1.509650 -5.855611 119 134 141 
-1.154286 1.508571 -5.851429 120 135 142 
-1.089362 1.497872 -5.809929 119 136 142 
-1.078014 1.497872 -5.809929 118 136 141 
-1.064402 1.494692 -5.797594 118 135 141 
-1.047150 1.486277 -5.764954 118 133 140 
-1.033708 1.483146 -5.752809 118 133 140 
-1.022472 1.483146 -5.752809 117 133 140 
-1.013371 1.486277 -5.764954 116 134 141 
-1.002111 1.486277 -5.764954 116 135 141 
-0.989459 1.484188 -5.756852 115 135 141 
-0.976842 1.482105 -5.748772 115 134 141 
-0.965614 1.482105 -5.748772 116 134 141 
-0.954386 1.482105 -5.748772 116 133 141 
-0.943158 1.482105 -5.748772 117 134 141 
-1.065622 2.068560 -8.023506 132 146 154 
-1.049951 2.068560 -8.023506 139 151 158 
-1.034280 2.068560 -8.023506 141 152 157 
-1.018609 2.068560 -8.023506 136 147 152 
-1.002938 2.068560 -8.023506 125 141 145 
-0.987267 2.068560 -8.023506 117 136 140 
-0.970646 2.066536 -8.015656 117 135 140 
-0.953125 2.062500 -8.000000 117 134 141 
-0.937500 2.062500 -8.000000 116 134 141 
-0.921875 2.062500 -8.000000 115 134 140 
-0.906250 2.062500 -8.000000 114 134 140 
-0.889756 2.060488 -7.992195 115 135 141 
-0.874146 2.060488 -7.992195 114 135 141 
2.648276 2.913103 -11.299311 135 136 167 
2.652055 2.893151 -11.221918 136 136 168 
2.655782 2.873469 -11.145578 136 137 169 
2.659459 2.854054 -11.070271 136 137 169 
2.681081 2.854054 -11.070271 136 137 169 
6.191950 6.538700 -25.362228 135 136 168 
6.241486 6.538700 -25.362228 135 136 168 
6.138973 6.380665 -24.749245 134 135 167 
6.187311 6.380665 -24.749245 134 136 166 
-2.173743 1.369040 -5.350751 89 97 110 
-2.157655 1.365472 -5.336808 89 97 110 
-2.147231 1.365472 -5.336808 89 97 111 
-2.055696 1.326582 -5.184810 90 97 113 
-2.045570 1.326582 -5.184810 90 97 112 
-1.220930 1.523256 -5.953488 117 132 139 
-1.209302 1.523256 -5.953488 118 133 140 
-1.195936 1.521045 -5.944848 119 134 141 
-1.173257 1.506830 -5.889288 119 134 141 
-1.158423 1.502509 -5.872401 120 135 142 
